ply
format ascii 1.0
element vertex 2512
property float x
property float y
property float z
property uchar red
property uchar green
property uchar blue
end_header
19 17 228 255 200 0
19 17 229 255 200 0
19 18 58 255 200 0
19 18 59 255 200 0
19 18 227 255 200 0
19 18 228 255 200 0
19 18 229 255 200 0
19 19 227 255 200 0
19 19 228 255 200 0
19 19 229 255 200 0
19 20 227 255 200 0
19 20 228 255 200 0
19 21 218 255 200 0
19 21 219 255 200 0
19 21 227 255 200 0
19 23 220 255 200 0
20 0 55 255 200 0
20 0 80 100 150 245
20 0 81 255 150 255
20 0 82 255 150 255
20 0 83 255 150 255
20 0 84 255 150 255
20 0 85 255 150 255
20 0 86 255 150 255
20 0 87 255 150 255
20 0 88 255 150 255
20 0 89 255 150 255
20 0 90 255 150 255
20 0 91 255 150 255
20 0 92 255 150 255
20 0 93 100 150 245
20 0 94 75 0 75
20 0 95 75 0 75
20 0 96 75 0 75
20 0 97 255 0 255
20 0 98 255 0 255
20 0 99 255 0 255
20 0 100 255 0 255
20 0 101 255 0 255
20 0 102 255 0 255
20 0 103 255 0 255
20 0 104 255 0 255
20 0 105 255 0 255
20 0 106 255 0 255
20 0 107 255 0 255
20 0 108 255 0 255
20 0 109 255 0 255
20 0 110 255 0 255
20 0 111 255 0 255
20 0 112 255 0 255
20 0 113 255 0 255
20 0 114 255 0 255
20 0 115 255 0 255
20 0 116 255 0 255
20 0 117 255 0 255
20 0 119 255 0 255
20 0 124 255 0 255
20 0 128 255 0 255
20 0 132 255 0 255
20 1 57 255 200 0
20 1 58 255 200 0
20 1 59 255 200 0
20 1 60 75 0 75
20 1 61 75 0 75
20 1 62 75 0 75
20 1 63 75 0 75
20 1 64 75 0 75
20 1 65 75 0 75
20 1 66 75 0 75
20 1 67 75 0 75
20 1 68 75 0 75
20 1 69 75 0 75
20 1 70 75 0 75
20 1 71 75 0 75
20 1 81 255 150 255
20 1 84 100 150 245
20 1 85 100 150 245
20 1 86 100 150 245
20 1 87 100 150 245
20 1 88 100 150 245
20 1 89 100 150 245
20 1 90 100 150 245
20 1 91 100 150 245
20 1 92 100 150 245
20 1 93 100 150 245
20 1 94 100 150 245
20 1 95 100 150 245
20 1 96 255 0 255
20 1 97 75 0 75
20 1 104 255 0 255
20 1 105 255 0 255
20 1 106 255 0 255
20 1 107 255 0 255
20 1 108 255 0 255
20 1 109 255 0 255
20 1 110 255 0 255
20 1 111 255 0 255
20 1 112 255 0 255
20 1 113 255 0 255
20 1 114 255 0 255
20 1 115 255 0 255
20 1 116 255 0 255
20 1 117 255 0 255
20 1 118 255 0 255
20 1 119 255 0 255
20 1 120 255 0 255
20 1 121 255 0 255
20 1 122 255 0 255
20 1 123 255 0 255
20 1 124 255 0 255
20 1 125 255 0 255
20 1 126 255 0 255
20 1 127 255 0 255
20 1 128 255 0 255
20 1 129 255 0 255
20 1 130 255 0 255
20 1 131 255 0 255
20 1 132 255 0 255
20 1 133 255 0 255
20 1 134 255 0 255
20 1 135 255 0 255
20 1 136 255 0 255
20 1 137 255 0 255
20 1 138 255 0 255
20 1 139 255 0 255
20 1 140 255 0 255
20 1 141 255 0 255
20 1 142 255 0 255
20 1 143 255 0 255
20 1 144 255 0 255
20 1 145 255 0 255
20 1 146 255 0 255
20 1 147 255 0 255
20 1 148 255 0 255
20 1 149 255 0 255
20 1 150 255 0 255
20 1 151 255 0 255
20 1 152 255 0 255
20 1 153 255 0 255
20 1 154 255 0 255
20 1 155 255 0 255
20 1 156 255 0 255
20 1 157 255 0 255
20 1 158 255 0 255
20 1 159 255 0 255
20 1 160 255 0 255
20 1 161 255 0 255
20 1 162 255 0 255
20 1 163 255 0 255
20 1 164 255 0 255
20 1 165 255 0 255
20 1 166 255 0 255
20 1 167 255 0 255
20 1 168 255 0 255
20 1 169 255 0 255
20 1 170 75 0 75
20 1 171 75 0 75
20 1 172 75 0 75
20 1 173 75 0 75
20 1 174 75 0 75
20 1 175 75 0 75
20 1 176 75 0 75
20 1 177 75 0 75
20 2 55 255 200 0
20 2 56 255 200 0
20 2 57 255 200 0
20 2 58 255 200 0
20 2 59 255 200 0
20 2 84 100 150 245
20 2 85 100 150 245
20 2 86 100 150 245
20 2 87 100 150 245
20 2 88 100 150 245
20 2 89 100 150 245
20 2 90 100 150 245
20 2 91 100 150 245
20 2 92 100 150 245
20 2 93 100 150 245
20 2 94 100 150 245
20 2 95 100 150 245
20 2 118 255 0 255
20 2 120 255 0 255
20 2 121 255 0 255
20 2 122 255 0 255
20 2 130 255 0 255
20 2 131 255 0 255
20 2 171 75 0 75
20 2 172 75 0 75
20 2 173 75 0 75
20 2 174 75 0 75
20 2 175 75 0 75
20 2 176 75 0 75
20 2 177 75 0 75
20 2 178 75 0 75
20 2 179 75 0 75
20 2 180 75 0 75
20 2 181 75 0 75
20 2 182 75 0 75
20 2 183 75 0 75
20 2 184 75 0 75
20 2 185 75 0 75
20 2 186 75 0 75
20 2 187 75 0 75
20 2 188 255 150 255
20 2 189 255 150 255
20 2 190 255 150 255
20 2 191 255 150 255
20 2 192 255 150 255
20 2 193 255 150 255
20 2 194 255 150 255
20 2 195 255 150 255
20 2 196 255 150 255
20 2 197 255 150 255
20 2 198 255 150 255
20 2 199 255 150 255
20 2 200 255 150 255
20 2 201 255 150 255
20 3 56 255 200 0
20 3 57 255 200 0
20 3 58 255 200 0
20 3 59 255 200 0
20 3 83 100 150 245
20 3 84 100 150 245
20 3 85 100 150 245
20 3 86 100 150 245
20 3 87 100 150 245
20 3 88 100 150 245
20 3 89 100 150 245
20 3 90 100 150 245
20 3 91 100 150 245
20 3 93 100 150 245
20 3 94 100 150 245
20 3 95 100 150 245
20 3 96 100 150 245
20 3 189 100 150 245
20 3 190 100 150 245
20 3 191 100 150 245
20 3 224 75 0 75
20 3 225 255 200 0
20 3 226 75 0 75
20 3 227 75 0 75
20 4 55 255 200 0
20 4 56 255 200 0
20 4 57 255 200 0
20 4 58 255 200 0
20 4 59 255 200 0
20 4 77 100 150 245
20 4 78 100 150 245
20 4 83 100 150 245
20 4 84 100 150 245
20 4 85 100 150 245
20 4 87 100 150 245
20 4 88 100 150 245
20 4 89 100 150 245
20 4 90 100 150 245
20 4 91 100 150 245
20 4 92 100 150 245
20 4 93 100 150 245
20 4 94 100 150 245
20 4 95 100 150 245
20 4 96 100 150 245
20 4 189 100 150 245
20 4 190 100 150 245
20 4 226 255 200 0
20 4 227 255 200 0
20 5 55 255 200 0
20 5 56 255 200 0
20 5 57 255 200 0
20 5 58 255 200 0
20 5 59 255 200 0
20 5 60 255 200 0
20 5 83 100 150 245
20 5 84 100 150 245
20 5 85 100 150 245
20 5 88 100 150 245
20 5 89 100 150 245
20 5 90 100 150 245
20 5 91 100 150 245
20 5 92 100 150 245
20 5 93 100 150 245
20 5 94 100 150 245
20 5 95 100 150 245
20 5 96 100 150 245
20 5 189 100 150 245
20 5 190 100 150 245
20 5 191 100 150 245
20 5 225 255 200 0
20 5 226 255 200 0
20 5 227 255 200 0
20 5 228 255 200 0
20 6 57 255 200 0
20 6 58 255 200 0
20 6 59 255 200 0
20 6 60 255 200 0
20 6 78 100 150 245
20 6 79 100 150 245
20 6 80 100 150 245
20 6 81 100 150 245
20 6 82 100 150 245
20 6 83 100 150 245
20 6 84 100 150 245
20 6 97 100 150 245
20 6 189 100 150 245
20 6 190 100 150 245
20 6 225 255 200 0
20 6 226 255 200 0
20 6 227 255 200 0
20 7 57 255 200 0
20 7 58 255 200 0
20 7 59 255 200 0
20 7 60 255 200 0
20 7 79 100 150 245
20 7 80 100 150 245
20 7 81 100 150 245
20 7 82 100 150 245
20 7 189 100 150 245
20 7 190 100 150 245
20 7 191 100 150 245
20 7 196 100 150 245
20 7 225 255 200 0
20 7 226 255 200 0
20 7 227 255 200 0
20 7 228 255 200 0
20 8 56 255 200 0
20 8 57 255 200 0
20 8 58 255 200 0
20 8 59 255 200 0
20 8 60 255 200 0
20 8 197 100 150 245
20 8 198 100 150 245
20 8 225 255 200 0
20 8 226 255 200 0
20 8 227 255 200 0
20 9 57 255 200 0
20 9 58 255 200 0
20 9 59 255 200 0
20 9 60 255 200 0
20 9 190 100 150 245
20 9 191 100 150 245
20 9 192 100 150 245
20 9 193 100 150 245
20 9 226 255 200 0
20 9 227 255 200 0
20 9 228 255 200 0
20 9 229 255 200 0
20 10 57 255 200 0
20 10 58 255 200 0
20 10 59 255 200 0
20 10 60 255 200 0
20 10 226 255 200 0
20 10 227 255 200 0
20 10 228 255 200 0
20 10 229 255 200 0
20 11 55 255 200 0
20 11 56 255 200 0
20 11 57 255 200 0
20 11 58 255 200 0
20 11 59 255 200 0
20 11 60 255 200 0
20 11 225 255 200 0
20 11 226 255 200 0
20 11 227 255 200 0
20 11 228 255 200 0
20 11 229 255 200 0
20 12 21 255 200 0
20 12 22 255 200 0
20 12 45 255 200 0
20 12 46 255 200 0
20 12 50 255 200 0
20 12 51 255 200 0
20 12 55 255 200 0
20 12 56 255 200 0
20 12 227 255 200 0
20 12 228 255 200 0
20 12 229 255 200 0
20 13 21 255 200 0
20 13 46 255 200 0
20 13 47 255 200 0
20 13 51 255 200 0
20 13 55 255 200 0
20 13 56 255 200 0
20 13 226 255 200 0
20 13 227 255 200 0
20 13 228 255 200 0
20 13 229 255 200 0
20 14 21 255 200 0
20 14 226 255 200 0
20 14 227 255 200 0
20 14 228 255 200 0
20 14 229 255 200 0
20 15 21 255 200 0
20 15 22 255 200 0
20 15 226 255 200 0
20 15 227 255 200 0
20 15 228 255 200 0
20 15 229 255 200 0
20 16 226 255 200 0
20 16 227 255 200 0
20 17 57 255 200 0
20 17 227 255 200 0
20 18 56 255 200 0
20 18 227 255 200 0
20 19 226 255 200 0
20 19 227 255 200 0
20 20 218 255 200 0
20 20 226 255 200 0
20 20 227 255 200 0
20 21 218 255 200 0
20 21 226 255 200 0
20 21 227 255 200 0
20 22 216 255 200 0
20 22 218 255 200 0
20 23 218 255 200 0
20 23 219 255 200 0
21 0 81 255 150 255
21 0 82 255 150 255
21 0 83 255 150 255
21 0 84 255 150 255
21 0 85 255 150 255
21 0 86 255 150 255
21 0 87 255 150 255
21 0 88 255 150 255
21 0 89 255 150 255
21 0 90 255 150 255
21 0 91 255 150 255
21 0 92 255 150 255
21 0 93 255 150 255
21 0 94 255 0 255
21 0 95 255 0 255
21 0 96 255 0 255
21 0 97 255 0 255
21 0 98 255 0 255
21 0 99 255 0 255
21 0 100 255 0 255
21 0 101 255 0 255
21 0 102 255 0 255
21 0 103 255 0 255
21 0 104 255 0 255
21 0 105 255 0 255
21 0 106 255 0 255
21 0 107 255 0 255
21 0 108 255 0 255
21 0 109 255 0 255
21 0 110 255 0 255
21 0 111 255 0 255
21 0 112 255 0 255
21 0 113 255 0 255
21 0 115 255 0 255
21 0 116 255 0 255
21 0 117 255 0 255
21 0 119 255 0 255
21 0 120 255 0 255
21 0 123 255 0 255
21 0 124 255 0 255
21 0 125 255 0 255
21 1 55 255 200 0
21 1 56 255 200 0
21 1 57 255 200 0
21 1 58 75 0 75
21 1 59 75 0 75
21 1 60 75 0 75
21 1 61 75 0 75
21 1 62 75 0 75
21 1 63 75 0 75
21 1 64 75 0 75
21 1 65 75 0 75
21 1 66 75 0 75
21 1 67 75 0 75
21 1 68 75 0 75
21 1 69 75 0 75
21 1 70 75 0 75
21 1 82 255 150 255
21 1 83 100 150 245
21 1 84 100 150 245
21 1 85 100 150 245
21 1 88 100 150 245
21 1 89 100 150 245
21 1 90 100 150 245
21 1 91 100 150 245
21 1 92 100 150 245
21 1 93 100 150 245
21 1 94 100 150 245
21 1 97 255 0 255
21 1 104 255 0 255
21 1 105 255 0 255
21 1 106 255 0 255
21 1 107 255 0 255
21 1 108 255 0 255
21 1 109 255 0 255
21 1 110 255 0 255
21 1 111 255 0 255
21 1 112 255 0 255
21 1 113 255 0 255
21 1 114 255 0 255
21 1 115 255 0 255
21 1 116 255 0 255
21 1 117 255 0 255
21 1 118 255 0 255
21 1 119 255 0 255
21 1 120 255 0 255
21 1 121 255 0 255
21 1 122 255 0 255
21 1 123 255 0 255
21 1 124 255 0 255
21 1 125 255 0 255
21 1 126 255 0 255
21 1 127 255 0 255
21 1 128 255 0 255
21 1 129 255 0 255
21 1 130 255 0 255
21 1 131 255 0 255
21 1 132 255 0 255
21 1 133 255 0 255
21 1 134 255 0 255
21 1 135 255 0 255
21 1 136 255 0 255
21 1 137 255 0 255
21 1 138 255 0 255
21 1 139 255 0 255
21 1 140 255 0 255
21 1 141 255 0 255
21 1 142 255 0 255
21 1 143 255 0 255
21 1 144 255 0 255
21 1 145 255 0 255
21 1 146 255 0 255
21 1 147 255 0 255
21 1 148 255 0 255
21 1 149 255 0 255
21 1 150 255 0 255
21 1 151 255 0 255
21 1 152 255 0 255
21 1 153 255 0 255
21 1 154 255 0 255
21 1 155 255 0 255
21 1 156 255 0 255
21 1 157 255 0 255
21 1 158 255 0 255
21 1 159 255 0 255
21 1 160 255 0 255
21 1 161 255 0 255
21 1 162 255 0 255
21 1 163 255 0 255
21 1 164 255 0 255
21 1 165 255 0 255
21 1 166 255 0 255
21 1 167 255 0 255
21 1 168 255 0 255
21 1 169 255 0 255
21 1 170 75 0 75
21 1 171 75 0 75
21 1 172 75 0 75
21 1 173 75 0 75
21 1 174 75 0 75
21 1 175 75 0 75
21 1 176 75 0 75
21 1 177 75 0 75
21 2 55 255 200 0
21 2 56 255 200 0
21 2 57 255 200 0
21 2 58 255 200 0
21 2 84 100 150 245
21 2 85 100 150 245
21 2 86 100 150 245
21 2 87 100 150 245
21 2 88 100 150 245
21 2 89 100 150 245
21 2 90 100 150 245
21 2 91 100 150 245
21 2 92 100 150 245
21 2 93 100 150 245
21 2 94 100 150 245
21 2 119 255 0 255
21 2 120 255 0 255
21 2 121 255 0 255
21 2 122 255 0 255
21 2 123 255 0 255
21 2 124 255 0 255
21 2 126 255 0 255
21 2 131 255 0 255
21 2 132 255 0 255
21 2 133 255 0 255
21 2 171 75 0 75
21 2 172 75 0 75
21 2 173 75 0 75
21 2 175 75 0 75
21 2 176 75 0 75
21 2 177 75 0 75
21 2 178 75 0 75
21 2 179 75 0 75
21 2 180 75 0 75
21 2 181 75 0 75
21 2 182 75 0 75
21 2 183 75 0 75
21 2 184 75 0 75
21 2 185 75 0 75
21 2 186 75 0 75
21 2 187 75 0 75
21 2 188 75 0 75
21 2 189 255 150 255
21 2 190 255 150 255
21 2 191 255 150 255
21 2 192 255 150 255
21 2 193 255 150 255
21 2 194 255 150 255
21 2 195 255 150 255
21 2 196 255 150 255
21 2 197 255 150 255
21 2 198 255 150 255
21 2 199 255 150 255
21 3 54 255 200 0
21 3 55 255 200 0
21 3 56 255 200 0
21 3 57 255 200 0
21 3 58 255 200 0
21 3 78 100 150 245
21 3 84 100 150 245
21 3 85 100 150 245
21 3 86 100 150 245
21 3 87 100 150 245
21 3 88 100 150 245
21 3 89 100 150 245
21 3 90 100 150 245
21 3 91 100 150 245
21 3 92 100 150 245
21 3 93 100 150 245
21 3 94 100 150 245
21 3 188 75 0 75
21 3 189 100 150 245
21 3 190 100 150 245
21 3 191 100 150 245
21 3 218 75 0 75
21 3 223 75 0 75
21 3 224 75 0 75
21 3 225 255 200 0
21 3 226 255 200 0
21 4 53 255 200 0
21 4 55 255 200 0
21 4 56 255 200 0
21 4 57 255 200 0
21 4 58 255 200 0
21 4 75 100 150 245
21 4 76 100 150 245
21 4 77 100 150 245
21 4 78 100 150 245
21 4 79 100 150 245
21 4 83 100 150 245
21 4 84 100 150 245
21 4 85 100 150 245
21 4 86 100 150 245
21 4 87 100 150 245
21 4 88 100 150 245
21 4 89 100 150 245
21 4 90 100 150 245
21 4 91 100 150 245
21 4 92 100 150 245
21 4 93 100 150 245
21 4 94 100 150 245
21 4 95 100 150 245
21 4 189 100 150 245
21 4 190 100 150 245
21 4 191 100 150 245
21 4 225 255 200 0
21 4 226 255 200 0
21 5 54 255 200 0
21 5 55 255 200 0
21 5 56 255 200 0
21 5 57 255 200 0
21 5 58 255 200 0
21 5 76 100 150 245
21 5 77 100 150 245
21 5 78 100 150 245
21 5 79 100 150 245
21 5 80 100 150 245
21 5 84 100 150 245
21 5 85 100 150 245
21 5 90 100 150 245
21 5 91 100 150 245
21 5 92 100 150 245
21 5 93 100 150 245
21 5 189 100 150 245
21 5 190 100 150 245
21 5 191 100 150 245
21 5 224 255 200 0
21 5 225 255 200 0
21 5 226 255 200 0
21 6 55 255 200 0
21 6 56 255 200 0
21 6 57 255 200 0
21 6 58 255 200 0
21 6 78 100 150 245
21 6 79 100 150 245
21 6 80 100 150 245
21 6 81 100 150 245
21 6 82 100 150 245
21 6 83 100 150 245
21 6 84 100 150 245
21 6 189 100 150 245
21 6 190 100 150 245
21 6 191 100 150 245
21 6 224 255 200 0
21 6 225 255 200 0
21 6 226 255 200 0
21 7 54 255 200 0
21 7 55 255 200 0
21 7 56 255 200 0
21 7 57 255 200 0
21 7 58 255 200 0
21 7 78 100 150 245
21 7 79 100 150 245
21 7 80 100 150 245
21 7 81 100 150 245
21 7 82 100 150 245
21 7 190 100 150 245
21 7 191 100 150 245
21 7 224 255 200 0
21 7 225 255 200 0
21 7 226 255 200 0
21 8 55 255 200 0
21 8 56 255 200 0
21 8 57 255 200 0
21 8 58 255 200 0
21 8 191 100 150 245
21 8 192 100 150 245
21 8 224 255 200 0
21 8 225 255 200 0
21 8 226 255 200 0
21 8 227 255 200 0
21 9 55 255 200 0
21 9 56 255 200 0
21 9 57 255 200 0
21 9 58 255 200 0
21 9 59 255 200 0
21 9 191 100 150 245
21 9 192 100 150 245
21 9 224 255 200 0
21 9 225 255 200 0
21 9 226 255 200 0
21 9 227 255 200 0
21 10 55 255 200 0
21 10 56 255 200 0
21 10 57 255 200 0
21 10 58 255 200 0
21 10 224 255 200 0
21 10 225 255 200 0
21 10 226 255 200 0
21 10 227 255 200 0
21 10 228 255 200 0
21 11 22 255 200 0
21 11 55 255 200 0
21 11 56 255 200 0
21 11 57 255 200 0
21 11 58 255 200 0
21 11 223 255 200 0
21 11 224 255 200 0
21 11 225 255 200 0
21 11 226 255 200 0
21 11 227 255 200 0
21 12 21 255 200 0
21 12 22 255 200 0
21 12 45 255 200 0
21 12 46 255 200 0
21 12 47 255 200 0
21 12 55 255 200 0
21 12 56 255 200 0
21 12 225 255 200 0
21 12 226 255 200 0
21 12 227 255 200 0
21 13 21 255 200 0
21 13 22 255 200 0
21 13 47 255 200 0
21 13 56 255 200 0
21 13 225 255 200 0
21 13 226 255 200 0
21 13 227 255 200 0
21 14 21 255 200 0
21 14 22 255 200 0
21 14 55 255 200 0
21 14 225 255 200 0
21 14 226 255 200 0
21 14 227 255 200 0
21 15 21 255 200 0
21 15 22 255 200 0
21 15 55 255 200 0
21 15 225 255 200 0
21 15 226 255 200 0
21 15 227 255 200 0
21 16 55 255 200 0
21 16 225 255 200 0
21 16 226 255 200 0
21 16 227 255 200 0
21 17 55 255 200 0
21 17 225 255 200 0
21 17 226 255 200 0
21 17 227 255 200 0
21 18 225 255 200 0
21 18 226 255 200 0
21 18 227 255 200 0
21 19 224 255 200 0
21 19 225 255 200 0
21 19 226 255 200 0
21 20 218 255 200 0
21 20 224 255 200 0
21 20 225 255 200 0
21 20 226 255 200 0
21 21 216 255 200 0
21 21 218 255 200 0
21 22 219 255 200 0
21 23 219 255 200 0
21 23 220 255 200 0
21 25 228 255 200 0
22 0 80 255 150 255
22 0 81 255 150 255
22 0 82 255 150 255
22 0 83 255 150 255
22 0 84 255 150 255
22 0 85 255 150 255
22 0 86 255 150 255
22 0 87 255 150 255
22 0 88 255 150 255
22 0 89 255 150 255
22 0 90 255 150 255
22 0 91 255 150 255
22 0 92 255 0 255
22 0 93 255 0 255
22 0 94 255 0 255
22 0 95 255 0 255
22 0 96 255 0 255
22 0 97 255 0 255
22 0 98 255 0 255
22 0 99 255 0 255
22 0 100 255 0 255
22 0 101 255 0 255
22 0 102 255 0 255
22 0 103 255 0 255
22 0 104 255 0 255
22 0 105 255 0 255
22 0 106 255 0 255
22 0 107 255 0 255
22 0 108 255 0 255
22 0 109 255 0 255
22 0 110 255 0 255
22 0 111 255 0 255
22 0 112 255 0 255
22 0 113 255 0 255
22 0 116 255 0 255
22 0 117 255 0 255
22 0 118 255 0 255
22 0 120 255 0 255
22 0 123 255 0 255
22 0 126 255 0 255
22 0 127 255 0 255
22 1 54 255 200 0
22 1 55 255 200 0
22 1 56 75 0 75
22 1 57 75 0 75
22 1 58 75 0 75
22 1 59 75 0 75
22 1 60 75 0 75
22 1 61 75 0 75
22 1 62 75 0 75
22 1 63 75 0 75
22 1 64 75 0 75
22 1 65 75 0 75
22 1 66 75 0 75
22 1 67 75 0 75
22 1 68 75 0 75
22 1 69 75 0 75
22 1 83 255 150 255
22 1 84 100 150 245
22 1 85 100 150 245
22 1 86 255 150 255
22 1 88 100 150 245
22 1 89 100 150 245
22 1 90 100 150 245
22 1 91 100 150 245
22 1 92 100 150 245
22 1 97 255 0 255
22 1 102 255 0 255
22 1 103 255 0 255
22 1 104 255 0 255
22 1 105 255 0 255
22 1 106 255 0 255
22 1 107 255 0 255
22 1 108 255 0 255
22 1 109 255 0 255
22 1 110 255 0 255
22 1 111 255 0 255
22 1 112 255 0 255
22 1 113 255 0 255
22 1 114 255 0 255
22 1 115 255 0 255
22 1 116 255 0 255
22 1 117 255 0 255
22 1 118 255 0 255
22 1 119 255 0 255
22 1 120 255 0 255
22 1 121 255 0 255
22 1 122 255 0 255
22 1 123 255 0 255
22 1 124 255 0 255
22 1 125 255 0 255
22 1 126 255 0 255
22 1 127 255 0 255
22 1 128 255 0 255
22 1 129 255 0 255
22 1 130 255 0 255
22 1 131 255 0 255
22 1 132 255 0 255
22 1 133 255 0 255
22 1 134 255 0 255
22 1 135 255 0 255
22 1 136 255 0 255
22 1 137 255 0 255
22 1 138 255 0 255
22 1 139 255 0 255
22 1 140 255 0 255
22 1 141 255 0 255
22 1 142 255 0 255
22 1 143 255 0 255
22 1 144 255 0 255
22 1 145 255 0 255
22 1 146 255 0 255
22 1 147 255 0 255
22 1 148 255 0 255
22 1 149 255 0 255
22 1 150 255 0 255
22 1 151 255 0 255
22 1 152 255 0 255
22 1 153 255 0 255
22 1 154 255 0 255
22 1 155 255 0 255
22 1 156 255 0 255
22 1 157 255 0 255
22 1 158 255 0 255
22 1 159 255 0 255
22 1 160 255 0 255
22 1 161 255 0 255
22 1 162 255 0 255
22 1 163 255 0 255
22 1 164 255 0 255
22 1 165 255 0 255
22 1 166 255 0 255
22 1 167 255 0 255
22 1 168 255 0 255
22 1 169 255 0 255
22 1 170 75 0 75
22 1 171 75 0 75
22 1 172 75 0 75
22 1 173 75 0 75
22 1 174 75 0 75
22 1 175 75 0 75
22 1 176 75 0 75
22 2 51 255 200 0
22 2 52 255 200 0
22 2 54 255 200 0
22 2 55 255 200 0
22 2 56 255 200 0
22 2 85 100 150 245
22 2 86 100 150 245
22 2 87 100 150 245
22 2 88 100 150 245
22 2 89 100 150 245
22 2 90 100 150 245
22 2 91 100 150 245
22 2 92 100 150 245
22 2 117 255 0 255
22 2 120 255 0 255
22 2 121 255 0 255
22 2 122 255 0 255
22 2 124 255 0 255
22 2 125 255 0 255
22 2 126 255 0 255
22 2 127 255 0 255
22 2 133 255 0 255
22 2 134 255 0 255
22 2 171 75 0 75
22 2 172 75 0 75
22 2 173 75 0 75
22 2 174 75 0 75
22 2 175 75 0 75
22 2 176 75 0 75
22 2 177 75 0 75
22 2 178 75 0 75
22 2 179 75 0 75
22 2 180 75 0 75
22 2 181 75 0 75
22 2 182 75 0 75
22 2 183 75 0 75
22 2 184 75 0 75
22 2 185 75 0 75
22 2 186 75 0 75
22 2 187 75 0 75
22 2 188 75 0 75
22 2 189 255 150 255
22 2 190 255 150 255
22 2 191 255 150 255
22 2 192 255 150 255
22 2 193 255 150 255
22 2 194 255 150 255
22 2 195 255 150 255
22 2 196 255 150 255
22 2 197 255 150 255
22 2 198 255 150 255
22 2 199 255 150 255
22 2 200 255 150 255
22 2 214 75 0 75
22 3 53 255 200 0
22 3 54 255 200 0
22 3 55 255 200 0
22 3 56 255 200 0
22 3 79 100 150 245
22 3 83 100 150 245
22 3 84 100 150 245
22 3 85 100 150 245
22 3 86 100 150 245
22 3 87 100 150 245
22 3 88 100 150 245
22 3 89 100 150 245
22 3 90 100 150 245
22 3 91 100 150 245
22 3 92 100 150 245
22 3 187 75 0 75
22 3 188 75 0 75
22 3 189 100 150 245
22 3 190 100 150 245
22 3 191 100 150 245
22 3 192 100 150 245
22 3 193 100 150 245
22 3 218 75 0 75
22 3 222 75 0 75
22 3 223 75 0 75
22 3 224 255 200 0
22 3 225 255 200 0
22 4 53 255 200 0
22 4 54 255 200 0
22 4 55 255 200 0
22 4 56 255 200 0
22 4 74 100 150 245
22 4 75 100 150 245
22 4 76 100 150 245
22 4 78 100 150 245
22 4 79 100 150 245
22 4 80 100 150 245
22 4 84 100 150 245
22 4 85 100 150 245
22 4 86 100 150 245
22 4 88 100 150 245
22 4 89 100 150 245
22 4 90 100 150 245
22 4 91 100 150 245
22 4 92 100 150 245
22 4 93 100 150 245
22 4 94 100 150 245
22 4 190 100 150 245
22 4 191 100 150 245
22 4 192 100 150 245
22 4 222 255 200 0
22 4 223 255 200 0
22 4 224 255 200 0
22 4 225 255 200 0
22 5 53 255 200 0
22 5 54 255 200 0
22 5 55 255 200 0
22 5 56 255 200 0
22 5 75 100 150 245
22 5 76 100 150 245
22 5 77 100 150 245
22 5 78 100 150 245
22 5 79 100 150 245
22 5 80 100 150 245
22 5 81 100 150 245
22 5 84 100 150 245
22 5 85 100 150 245
22 5 86 100 150 245
22 5 90 100 150 245
22 5 190 100 150 245
22 5 191 100 150 245
22 5 192 100 150 245
22 5 221 255 200 0
22 5 222 255 200 0
22 5 223 255 200 0
22 5 224 255 200 0
22 5 225 255 200 0
22 6 53 255 200 0
22 6 54 255 200 0
22 6 55 255 200 0
22 6 56 255 200 0
22 6 75 100 150 245
22 6 76 100 150 245
22 6 78 100 150 245
22 6 79 100 150 245
22 6 80 100 150 245
22 6 81 100 150 245
22 6 82 100 150 245
22 6 83 100 150 245
22 6 84 100 150 245
22 6 85 100 150 245
22 6 190 100 150 245
22 6 191 100 150 245
22 6 192 100 150 245
22 6 222 255 200 0
22 6 223 255 200 0
22 6 224 255 200 0
22 7 53 255 200 0
22 7 54 255 200 0
22 7 55 255 200 0
22 7 56 255 200 0
22 7 57 255 200 0
22 7 77 100 150 245
22 7 78 100 150 245
22 7 79 100 150 245
22 7 80 100 150 245
22 7 81 100 150 245
22 7 82 100 150 245
22 7 83 100 150 245
22 7 190 100 150 245
22 7 191 100 150 245
22 7 192 100 150 245
22 7 193 100 150 245
22 7 222 255 200 0
22 7 223 255 200 0
22 7 224 255 200 0
22 8 53 255 200 0
22 8 54 255 200 0
22 8 55 255 200 0
22 8 56 255 200 0
22 8 191 100 150 245
22 8 192 100 150 245
22 8 193 100 150 245
22 8 222 255 200 0
22 8 223 255 200 0
22 8 224 255 200 0
22 8 225 255 200 0
22 9 53 255 200 0
22 9 54 255 200 0
22 9 55 255 200 0
22 9 56 255 200 0
22 9 57 255 200 0
22 9 191 100 150 245
22 9 222 255 200 0
22 9 223 255 200 0
22 9 224 255 200 0
22 9 225 255 200 0
22 9 226 255 200 0
22 10 53 255 200 0
22 10 54 255 200 0
22 10 55 255 200 0
22 10 56 255 200 0
22 10 57 255 200 0
22 10 223 255 200 0
22 10 224 255 200 0
22 10 225 255 200 0
22 10 226 255 200 0
22 11 54 255 200 0
22 11 55 255 200 0
22 11 56 255 200 0
22 11 222 255 200 0
22 11 223 255 200 0
22 11 224 255 200 0
22 11 225 255 200 0
22 11 226 255 200 0
22 11 227 255 200 0
22 12 16 255 200 0
22 12 17 255 200 0
22 12 46 255 200 0
22 12 47 255 200 0
22 12 54 255 200 0
22 12 55 255 200 0
22 12 56 255 200 0
22 12 224 255 200 0
22 12 225 255 200 0
22 12 226 255 200 0
22 13 16 255 200 0
22 13 17 255 200 0
22 13 47 255 200 0
22 13 54 255 200 0
22 13 55 255 200 0
22 13 56 255 200 0
22 13 223 255 200 0
22 13 224 255 200 0
22 13 225 255 200 0
22 13 226 255 200 0
22 13 227 255 200 0
22 14 16 255 200 0
22 14 17 255 200 0
22 14 54 255 200 0
22 14 55 255 200 0
22 14 223 255 200 0
22 14 224 255 200 0
22 14 225 255 200 0
22 14 226 255 200 0
22 14 227 255 200 0
22 15 16 255 200 0
22 15 22 255 200 0
22 15 54 255 200 0
22 15 55 255 200 0
22 15 224 255 200 0
22 15 225 255 200 0
22 15 226 255 200 0
22 15 227 255 200 0
22 16 54 255 200 0
22 16 55 255 200 0
22 16 223 255 200 0
22 16 224 255 200 0
22 16 225 255 200 0
22 16 226 255 200 0
22 17 53 255 200 0
22 17 54 255 200 0
22 17 224 255 200 0
22 17 225 255 200 0
22 18 54 255 200 0
22 18 224 255 200 0
22 18 225 255 200 0
22 18 226 255 200 0
22 19 223 255 200 0
22 19 224 255 200 0
22 19 225 255 200 0
22 20 217 255 200 0
22 20 224 255 200 0
22 21 216 255 200 0
22 21 217 255 200 0
22 21 219 255 200 0
22 22 216 255 200 0
23 0 81 255 150 255
23 0 82 255 150 255
23 0 83 255 150 255
23 0 84 255 150 255
23 0 85 255 150 255
23 0 86 255 150 255
23 0 87 255 150 255
23 0 88 255 150 255
23 0 89 255 150 255
23 0 90 255 150 255
23 0 91 255 0 255
23 0 92 255 0 255
23 0 93 255 0 255
23 0 94 255 0 255
23 0 95 255 0 255
23 0 96 255 0 255
23 0 97 255 0 255
23 0 98 255 0 255
23 0 99 255 0 255
23 0 100 255 0 255
23 0 101 255 0 255
23 0 102 255 0 255
23 0 103 255 0 255
23 0 104 255 0 255
23 0 105 255 0 255
23 0 106 255 0 255
23 0 107 255 0 255
23 0 108 255 0 255
23 0 109 255 0 255
23 0 110 255 0 255
23 0 111 255 0 255
23 0 113 255 0 255
23 0 114 255 0 255
23 0 117 255 0 255
23 0 118 255 0 255
23 0 119 255 0 255
23 0 120 255 0 255
23 0 121 255 0 255
23 0 124 255 0 255
23 0 127 255 0 255
23 0 128 255 0 255
23 1 52 255 200 0
23 1 53 255 200 0
23 1 54 255 200 0
23 1 55 75 0 75
23 1 56 75 0 75
23 1 57 75 0 75
23 1 58 75 0 75
23 1 59 75 0 75
23 1 60 75 0 75
23 1 61 75 0 75
23 1 62 75 0 75
23 1 63 75 0 75
23 1 64 75 0 75
23 1 65 75 0 75
23 1 66 75 0 75
23 1 67 75 0 75
23 1 68 75 0 75
23 1 83 100 150 245
23 1 84 100 150 245
23 1 85 100 150 245
23 1 87 100 150 245
23 1 88 255 150 255
23 1 90 255 150 255
23 1 97 255 0 255
23 1 99 255 0 255
23 1 101 255 0 255
23 1 102 255 0 255
23 1 103 255 0 255
23 1 104 255 0 255
23 1 105 255 0 255
23 1 106 255 0 255
23 1 107 255 0 255
23 1 108 255 0 255
23 1 109 255 0 255
23 1 110 255 0 255
23 1 111 255 0 255
23 1 112 255 0 255
23 1 113 255 0 255
23 1 114 255 0 255
23 1 115 255 0 255
23 1 116 255 0 255
23 1 117 255 0 255
23 1 118 255 0 255
23 1 119 255 0 255
23 1 120 255 0 255
23 1 121 255 0 255
23 1 122 255 0 255
23 1 123 255 0 255
23 1 124 255 0 255
23 1 125 255 0 255
23 1 126 255 0 255
23 1 127 255 0 255
23 1 128 255 0 255
23 1 129 255 0 255
23 1 130 255 0 255
23 1 131 255 0 255
23 1 132 255 0 255
23 1 133 255 0 255
23 1 134 255 0 255
23 1 135 255 0 255
23 1 136 255 0 255
23 1 137 255 0 255
23 1 138 255 0 255
23 1 139 255 0 255
23 1 140 255 0 255
23 1 141 255 0 255
23 1 142 255 0 255
23 1 143 255 0 255
23 1 144 255 0 255
23 1 145 255 0 255
23 1 146 255 0 255
23 1 147 255 0 255
23 1 148 255 0 255
23 1 149 255 0 255
23 1 150 255 0 255
23 1 151 255 0 255
23 1 152 255 0 255
23 1 153 255 0 255
23 1 154 255 0 255
23 1 155 255 0 255
23 1 156 255 0 255
23 1 157 255 0 255
23 1 158 255 0 255
23 1 159 255 0 255
23 1 160 255 0 255
23 1 161 255 0 255
23 1 162 255 0 255
23 1 163 255 0 255
23 1 164 255 0 255
23 1 165 255 0 255
23 1 166 255 0 255
23 1 167 255 0 255
23 1 168 255 0 255
23 1 169 255 0 255
23 1 170 75 0 75
23 1 171 75 0 75
23 1 172 75 0 75
23 1 173 75 0 75
23 1 174 75 0 75
23 1 175 75 0 75
23 1 176 75 0 75
23 2 48 255 200 0
23 2 52 255 200 0
23 2 53 255 200 0
23 2 54 255 200 0
23 2 55 255 200 0
23 2 85 100 150 245
23 2 86 100 150 245
23 2 88 100 150 245
23 2 89 100 150 245
23 2 90 100 150 245
23 2 91 100 150 245
23 2 116 255 0 255
23 2 117 255 0 255
23 2 118 255 0 255
23 2 122 255 0 255
23 2 123 255 0 255
23 2 124 255 0 255
23 2 125 255 0 255
23 2 126 255 0 255
23 2 127 255 0 255
23 2 134 255 0 255
23 2 135 255 0 255
23 2 171 75 0 75
23 2 172 75 0 75
23 2 173 75 0 75
23 2 174 75 0 75
23 2 175 75 0 75
23 2 176 75 0 75
23 2 177 75 0 75
23 2 178 75 0 75
23 2 179 75 0 75
23 2 180 75 0 75
23 2 181 75 0 75
23 2 182 75 0 75
23 2 183 75 0 75
23 2 184 75 0 75
23 2 185 75 0 75
23 2 186 75 0 75
23 2 187 75 0 75
23 2 188 75 0 75
23 2 189 75 0 75
23 2 190 255 150 255
23 2 191 255 150 255
23 2 192 255 150 255
23 2 193 255 150 255
23 2 194 255 150 255
23 2 195 255 150 255
23 2 196 255 150 255
23 2 197 255 150 255
23 2 198 255 150 255
23 2 199 255 150 255
23 2 211 75 0 75
23 2 215 75 0 75
23 3 52 255 200 0
23 3 53 255 200 0
23 3 54 255 200 0
23 3 72 100 150 245
23 3 73 100 150 245
23 3 75 100 150 245
23 3 84 100 150 245
23 3 85 100 150 245
23 3 86 100 150 245
23 3 89 100 150 245
23 3 90 100 150 245
23 3 91 100 150 245
23 3 190 100 150 245
23 3 191 100 150 245
23 3 192 100 150 245
23 3 193 100 150 245
23 3 194 100 150 245
23 3 197 100 150 245
23 3 211 75 0 75
23 3 214 75 0 75
23 3 215 75 0 75
23 3 218 75 0 75
23 3 220 75 0 75
23 3 221 75 0 75
23 3 222 255 200 0
23 3 223 75 0 75
23 4 51 255 200 0
23 4 52 255 200 0
23 4 53 255 200 0
23 4 54 255 200 0
23 4 55 255 200 0
23 4 72 100 150 245
23 4 73 100 150 245
23 4 74 100 150 245
23 4 75 100 150 245
23 4 79 100 150 245
23 4 80 100 150 245
23 4 84 100 150 245
23 4 85 100 150 245
23 4 86 100 150 245
23 4 87 100 150 245
23 4 89 100 150 245
23 4 90 100 150 245
23 4 92 100 150 245
23 4 191 100 150 245
23 4 192 100 150 245
23 4 220 255 200 0
23 4 221 255 200 0
23 4 222 255 200 0
23 5 51 255 200 0
23 5 52 255 200 0
23 5 53 255 200 0
23 5 54 255 200 0
23 5 55 255 200 0
23 5 71 100 150 245
23 5 73 100 150 245
23 5 74 100 150 245
23 5 75 100 150 245
23 5 76 100 150 245
23 5 77 100 150 245
23 5 78 100 150 245
23 5 79 100 150 245
23 5 80 100 150 245
23 5 81 100 150 245
23 5 82 100 150 245
23 5 83 100 150 245
23 5 84 100 150 245
23 5 85 100 150 245
23 5 86 100 150 245
23 5 87 100 150 245
23 5 190 100 150 245
23 5 191 100 150 245
23 5 192 100 150 245
23 5 193 100 150 245
23 5 220 255 200 0
23 5 221 255 200 0
23 5 222 255 200 0
23 6 52 255 200 0
23 6 53 255 200 0
23 6 54 255 200 0
23 6 55 255 200 0
23 6 71 100 150 245
23 6 74 100 150 245
23 6 75 100 150 245
23 6 76 100 150 245
23 6 77 100 150 245
23 6 79 100 150 245
23 6 80 100 150 245
23 6 81 100 150 245
23 6 82 100 150 245
23 6 83 100 150 245
23 6 84 100 150 245
23 6 85 100 150 245
23 6 191 100 150 245
23 6 192 100 150 245
23 6 193 100 150 245
23 6 194 100 150 245
23 6 220 255 200 0
23 6 221 255 200 0
23 6 222 255 200 0
23 7 52 255 200 0
23 7 53 255 200 0
23 7 54 255 200 0
23 7 55 255 200 0
23 7 74 100 150 245
23 7 75 100 150 245
23 7 76 100 150 245
23 7 77 100 150 245
23 7 78 100 150 245
23 7 79 100 150 245
23 7 80 100 150 245
23 7 81 100 150 245
23 7 82 100 150 245
23 7 83 100 150 245
23 7 84 100 150 245
23 7 190 100 150 245
23 7 191 100 150 245
23 7 192 100 150 245
23 7 193 100 150 245
23 7 220 255 200 0
23 7 221 255 200 0
23 7 222 255 200 0
23 7 223 255 200 0
23 8 50 255 200 0
23 8 51 255 200 0
23 8 52 255 200 0
23 8 53 255 200 0
23 8 54 255 200 0
23 8 55 255 200 0
23 8 56 255 200 0
23 8 191 100 150 245
23 8 192 100 150 245
23 8 221 255 200 0
23 8 222 255 200 0
23 8 223 255 200 0
23 9 52 255 200 0
23 9 53 255 200 0
23 9 54 255 200 0
23 9 55 255 200 0
23 9 56 255 200 0
23 9 221 255 200 0
23 9 222 255 200 0
23 9 223 255 200 0
23 9 224 255 200 0
23 10 51 255 200 0
23 10 52 255 200 0
23 10 53 255 200 0
23 10 54 255 200 0
23 10 55 255 200 0
23 10 221 255 200 0
23 10 222 255 200 0
23 10 223 255 200 0
23 10 224 255 200 0
23 11 51 255 200 0
23 11 52 255 200 0
23 11 53 255 200 0
23 11 54 255 200 0
23 11 55 255 200 0
23 11 221 255 200 0
23 11 222 255 200 0
23 11 223 255 200 0
23 11 224 255 200 0
23 11 225 255 200 0
23 12 14 255 200 0
23 12 15 255 200 0
23 12 16 255 200 0
23 12 52 255 200 0
23 12 53 255 200 0
23 12 54 255 200 0
23 12 220 255 200 0
23 12 221 255 200 0
23 12 222 255 200 0
23 12 223 255 200 0
23 12 224 255 200 0
23 12 225 255 200 0
23 13 14 255 200 0
23 13 15 255 200 0
23 13 16 255 200 0
23 13 52 255 200 0
23 13 53 255 200 0
23 13 54 255 200 0
23 13 220 255 200 0
23 13 221 255 200 0
23 13 222 255 200 0
23 13 223 255 200 0
23 13 224 255 200 0
23 13 225 255 200 0
23 14 14 255 200 0
23 14 15 255 200 0
23 14 16 255 200 0
23 14 52 255 200 0
23 14 53 255 200 0
23 14 54 255 200 0
23 14 221 255 200 0
23 14 222 255 200 0
23 14 223 255 200 0
23 14 224 255 200 0
23 14 225 255 200 0
23 15 15 255 200 0
23 15 16 255 200 0
23 15 52 255 200 0
23 15 53 255 200 0
23 15 220 255 200 0
23 15 221 255 200 0
23 15 222 255 200 0
23 15 223 255 200 0
23 15 224 255 200 0
23 15 225 255 200 0
23 16 50 255 200 0
23 16 52 255 200 0
23 16 53 255 200 0
23 16 220 255 200 0
23 16 221 255 200 0
23 16 222 255 200 0
23 16 223 255 200 0
23 16 224 255 200 0
23 17 50 255 200 0
23 17 53 255 200 0
23 17 220 255 200 0
23 17 221 255 200 0
23 17 222 255 200 0
23 17 223 255 200 0
23 17 224 255 200 0
23 18 220 255 200 0
23 18 221 255 200 0
23 18 222 255 200 0
23 18 223 255 200 0
23 18 224 255 200 0
23 19 219 255 200 0
23 19 220 255 200 0
23 19 221 255 200 0
23 19 222 255 200 0
23 20 218 255 200 0
23 20 219 255 200 0
23 20 220 255 200 0
23 20 221 255 200 0
23 21 217 255 200 0
23 21 219 255 200 0
23 23 218 255 200 0
24 0 80 255 150 255
24 0 81 255 150 255
24 0 82 255 150 255
24 0 83 255 150 255
24 0 84 255 150 255
24 0 85 255 150 255
24 0 86 255 150 255
24 0 87 255 150 255
24 0 88 255 150 255
24 0 89 255 0 255
24 0 90 255 0 255
24 0 91 255 0 255
24 0 92 255 0 255
24 0 93 255 0 255
24 0 94 255 0 255
24 0 95 255 0 255
24 0 96 255 0 255
24 0 97 255 0 255
24 0 98 255 0 255
24 0 99 255 0 255
24 0 100 255 0 255
24 0 101 255 0 255
24 0 102 255 0 255
24 0 103 255 0 255
24 0 104 255 0 255
24 0 105 255 0 255
24 0 106 255 0 255
24 0 107 255 0 255
24 0 108 255 0 255
24 0 109 255 0 255
24 0 110 255 0 255
24 0 111 255 0 255
24 0 112 255 0 255
24 0 114 255 0 255
24 0 117 255 0 255
24 0 119 255 0 255
24 0 120 255 0 255
24 0 121 255 0 255
24 0 122 255 0 255
24 0 125 255 0 255
24 0 129 255 0 255
24 0 130 255 0 255
24 1 46 255 200 0
24 1 47 255 200 0
24 1 50 255 200 0
24 1 51 255 200 0
24 1 52 255 200 0
24 1 53 75 0 75
24 1 54 75 0 75
24 1 55 75 0 75
24 1 56 75 0 75
24 1 57 75 0 75
24 1 58 75 0 75
24 1 59 75 0 75
24 1 60 75 0 75
24 1 61 75 0 75
24 1 62 75 0 75
24 1 63 75 0 75
24 1 64 75 0 75
24 1 65 75 0 75
24 1 66 75 0 75
24 1 67 75 0 75
24 1 83 255 150 255
24 1 84 100 150 245
24 1 85 100 150 245
24 1 89 255 150 255
24 1 91 255 0 255
24 1 92 255 0 255
24 1 94 255 0 255
24 1 97 255 0 255
24 1 100 255 0 255
24 1 101 255 0 255
24 1 102 255 0 255
24 1 103 255 0 255
24 1 104 255 0 255
24 1 105 255 0 255
24 1 106 255 0 255
24 1 107 255 0 255
24 1 108 255 0 255
24 1 109 255 0 255
24 1 110 255 0 255
24 1 111 255 0 255
24 1 112 255 0 255
24 1 113 255 0 255
24 1 114 255 0 255
24 1 115 255 0 255
24 1 116 255 0 255
24 1 117 255 0 255
24 1 118 255 0 255
24 1 119 255 0 255
24 1 120 255 0 255
24 1 121 255 0 255
24 1 122 255 0 255
24 1 123 255 0 255
24 1 124 255 0 255
24 1 125 255 0 255
24 1 126 255 0 255
24 1 127 255 0 255
24 1 128 255 0 255
24 1 129 255 0 255
24 1 130 255 0 255
24 1 131 255 0 255
24 1 132 255 0 255
24 1 133 255 0 255
24 1 134 255 0 255
24 1 135 255 0 255
24 1 136 255 0 255
24 1 137 255 0 255
24 1 138 255 0 255
24 1 139 255 0 255
24 1 140 255 0 255
24 1 141 255 0 255
24 1 142 255 0 255
24 1 143 255 0 255
24 1 144 255 0 255
24 1 145 255 0 255
24 1 146 255 0 255
24 1 147 255 0 255
24 1 148 255 0 255
24 1 149 255 0 255
24 1 150 255 0 255
24 1 151 255 0 255
24 1 152 255 0 255
24 1 153 255 0 255
24 1 154 255 0 255
24 1 155 255 0 255
24 1 156 255 0 255
24 1 157 255 0 255
24 1 158 255 0 255
24 1 159 255 0 255
24 1 160 255 0 255
24 1 161 255 0 255
24 1 162 255 0 255
24 1 163 255 0 255
24 1 164 255 0 255
24 1 165 255 0 255
24 1 166 255 0 255
24 1 167 255 0 255
24 1 168 255 0 255
24 1 169 255 0 255
24 1 170 75 0 75
24 1 171 75 0 75
24 1 172 75 0 75
24 1 173 75 0 75
24 1 174 75 0 75
24 1 175 75 0 75
24 1 176 75 0 75
24 1 177 75 0 75
24 2 50 255 200 0
24 2 51 255 200 0
24 2 52 255 200 0
24 2 53 255 200 0
24 2 54 75 0 75
24 2 83 100 150 245
24 2 84 100 150 245
24 2 85 100 150 245
24 2 86 100 150 245
24 2 116 255 0 255
24 2 118 255 0 255
24 2 124 255 0 255
24 2 125 255 0 255
24 2 126 255 0 255
24 2 127 255 0 255
24 2 128 255 0 255
24 2 136 255 0 255
24 2 137 255 0 255
24 2 171 75 0 75
24 2 172 75 0 75
24 2 173 75 0 75
24 2 174 75 0 75
24 2 175 75 0 75
24 2 176 75 0 75
24 2 177 75 0 75
24 2 178 75 0 75
24 2 179 75 0 75
24 2 180 75 0 75
24 2 181 75 0 75
24 2 182 75 0 75
24 2 183 75 0 75
24 2 184 75 0 75
24 2 185 75 0 75
24 2 186 75 0 75
24 2 187 75 0 75
24 2 188 75 0 75
24 2 189 75 0 75
24 2 190 75 0 75
24 2 191 255 150 255
24 2 192 100 150 245
24 2 193 100 150 245
24 2 194 255 150 255
24 2 195 255 150 255
24 2 196 255 150 255
24 2 197 75 0 75
24 2 210 75 0 75
24 2 212 75 0 75
24 3 48 255 200 0
24 3 49 255 200 0
24 3 50 255 200 0
24 3 51 255 200 0
24 3 52 255 200 0
24 3 53 255 200 0
24 3 72 100 150 245
24 3 73 100 150 245
24 3 75 100 150 245
24 3 84 100 150 245
24 3 85 100 150 245
24 3 86 100 150 245
24 3 87 100 150 245
24 3 189 75 0 75
24 3 191 100 150 245
24 3 192 100 150 245
24 3 193 100 150 245
24 3 194 100 150 245
24 3 210 75 0 75
24 3 211 75 0 75
24 3 212 75 0 75
24 3 213 75 0 75
24 3 214 75 0 75
24 3 215 75 0 75
24 3 216 75 0 75
24 3 217 75 0 75
24 3 218 75 0 75
24 3 219 75 0 75
24 3 220 255 200 0
24 3 221 255 200 0
24 4 47 255 200 0
24 4 49 255 200 0
24 4 50 255 200 0
24 4 51 255 200 0
24 4 52 255 200 0
24 4 53 255 200 0
24 4 71 100 150 245
24 4 72 100 150 245
24 4 73 100 150 245
24 4 74 100 150 245
24 4 75 100 150 245
24 4 76 100 150 245
24 4 80 100 150 245
24 4 84 100 150 245
24 4 85 100 150 245
24 4 86 100 150 245
24 4 191 100 150 245
24 4 192 100 150 245
24 4 193 100 150 245
24 4 194 100 150 245
24 4 219 255 200 0
24 4 220 255 200 0
24 4 221 255 200 0
24 5 49 255 200 0
24 5 50 255 200 0
24 5 51 255 200 0
24 5 52 255 200 0
24 5 53 255 200 0
24 5 70 100 150 245
24 5 71 100 150 245
24 5 72 100 150 245
24 5 73 100 150 245
24 5 74 100 150 245
24 5 75 100 150 245
24 5 76 100 150 245
24 5 77 100 150 245
24 5 80 100 150 245
24 5 81 100 150 245
24 5 82 100 150 245
24 5 83 100 150 245
24 5 84 100 150 245
24 5 85 100 150 245
24 5 86 100 150 245
24 5 87 100 150 245
24 5 191 100 150 245
24 5 192 100 150 245
24 5 193 100 150 245
24 5 194 100 150 245
24 5 218 255 200 0
24 5 219 255 200 0
24 5 220 255 200 0
24 5 221 255 200 0
24 6 47 255 200 0
24 6 49 255 200 0
24 6 50 255 200 0
24 6 51 255 200 0
24 6 52 255 200 0
24 6 53 255 200 0
24 6 70 100 150 245
24 6 71 100 150 245
24 6 72 100 150 245
24 6 73 100 150 245
24 6 74 100 150 245
24 6 75 100 150 245
24 6 76 100 150 245
24 6 77 100 150 245
24 6 80 100 150 245
24 6 81 100 150 245
24 6 82 100 150 245
24 6 83 100 150 245
24 6 84 100 150 245
24 6 85 100 150 245
24 6 86 100 150 245
24 6 191 100 150 245
24 6 192 100 150 245
24 6 193 100 150 245
24 6 219 255 200 0
24 6 220 255 200 0
24 6 221 255 200 0
24 7 47 255 200 0
24 7 48 255 200 0
24 7 49 255 200 0
24 7 50 255 200 0
24 7 51 255 200 0
24 7 52 255 200 0
24 7 53 255 200 0
24 7 54 255 200 0
24 7 72 100 150 245
24 7 73 100 150 245
24 7 74 100 150 245
24 7 75 100 150 245
24 7 76 100 150 245
24 7 77 100 150 245
24 7 78 100 150 245
24 7 79 100 150 245
24 7 80 100 150 245
24 7 81 100 150 245
24 7 82 100 150 245
24 7 83 100 150 245
24 7 84 100 150 245
24 7 192 100 150 245
24 7 193 100 150 245
24 7 219 255 200 0
24 7 220 255 200 0
24 7 221 255 200 0
24 7 222 255 200 0
24 8 49 255 200 0
24 8 50 255 200 0
24 8 51 255 200 0
24 8 52 255 200 0
24 8 53 255 200 0
24 8 77 100 150 245
24 8 192 100 150 245
24 8 219 255 200 0
24 8 220 255 200 0
24 8 221 255 200 0
24 8 222 255 200 0
24 8 223 255 200 0
24 9 47 255 200 0
24 9 48 255 200 0
24 9 49 255 200 0
24 9 50 255 200 0
24 9 51 255 200 0
24 9 52 255 200 0
24 9 53 255 200 0
24 9 54 255 200 0
24 9 219 255 200 0
24 9 220 255 200 0
24 9 221 255 200 0
24 9 222 255 200 0
24 9 224 255 200 0
24 10 49 255 200 0
24 10 50 255 200 0
24 10 51 255 200 0
24 10 52 255 200 0
24 10 53 255 200 0
24 10 54 255 200 0
24 10 219 255 200 0
24 10 220 255 200 0
24 10 221 255 200 0
24 10 222 255 200 0
24 10 223 255 200 0
24 11 49 255 200 0
24 11 50 255 200 0
24 11 51 255 200 0
24 11 52 255 200 0
24 11 53 255 200 0
24 11 219 255 200 0
24 11 220 255 200 0
24 11 221 255 200 0
24 11 222 255 200 0
24 11 223 255 200 0
24 12 13 255 200 0
24 12 14 255 200 0
24 12 49 255 200 0
24 12 50 255 200 0
24 12 51 255 200 0
24 12 52 255 200 0
24 12 53 255 200 0
24 12 219 255 200 0
24 12 220 255 200 0
24 12 221 255 200 0
24 12 222 255 200 0
24 12 223 255 200 0
24 13 13 255 200 0
24 13 14 255 200 0
24 13 15 255 200 0
24 13 49 255 200 0
24 13 50 255 200 0
24 13 51 255 200 0
24 13 52 255 200 0
24 13 219 255 200 0
24 13 220 255 200 0
24 13 221 255 200 0
24 13 222 255 200 0
24 13 223 255 200 0
24 14 13 255 200 0
24 14 14 255 200 0
24 14 49 255 200 0
24 14 50 255 200 0
24 14 51 255 200 0
24 14 52 255 200 0
24 14 219 255 200 0
24 14 220 255 200 0
24 14 221 255 200 0
24 14 222 255 200 0
24 14 223 255 200 0
24 14 224 255 200 0
24 15 13 255 200 0
24 15 14 255 200 0
24 15 49 255 200 0
24 15 50 255 200 0
24 15 51 255 200 0
24 15 52 255 200 0
24 15 219 255 200 0
24 15 220 255 200 0
24 15 221 255 200 0
24 15 222 255 200 0
24 15 223 255 200 0
24 15 224 255 200 0
24 16 49 255 200 0
24 16 50 255 200 0
24 16 51 255 200 0
24 16 52 255 200 0
24 16 219 255 200 0
24 16 220 255 200 0
24 16 221 255 200 0
24 16 222 255 200 0
24 17 50 255 200 0
24 17 51 255 200 0
24 17 52 255 200 0
24 17 219 255 200 0
24 17 220 255 200 0
24 17 221 255 200 0
24 18 50 255 200 0
24 18 51 255 200 0
24 18 219 255 200 0
24 18 220 255 200 0
24 18 221 255 200 0
24 19 218 255 200 0
24 19 219 255 200 0
24 19 220 255 200 0
24 19 221 255 200 0
24 19 222 255 200 0
24 20 218 255 200 0
24 20 219 255 200 0
24 21 218 255 200 0
24 22 217 255 200 0
24 23 220 255 200 0
25 0 80 255 150 255
25 0 81 255 150 255
25 0 82 255 150 255
25 0 83 255 150 255
25 0 84 255 150 255
25 0 85 255 150 255
25 0 86 255 150 255
25 0 87 255 150 255
25 0 88 255 0 255
25 0 89 255 0 255
25 0 90 255 0 255
25 0 91 255 0 255
25 0 92 255 0 255
25 0 93 255 0 255
25 0 94 255 0 255
25 0 95 255 0 255
25 0 96 255 0 255
25 0 97 255 0 255
25 0 98 255 0 255
25 0 99 255 0 255
25 0 100 255 0 255
25 0 101 255 0 255
25 0 102 255 0 255
25 0 103 255 0 255
25 0 104 255 0 255
25 0 105 255 0 255
25 0 106 255 0 255
25 0 107 255 0 255
25 0 108 255 0 255
25 0 109 255 0 255
25 0 110 255 0 255
25 0 111 255 0 255
25 0 112 255 0 255
25 0 114 255 0 255
25 0 115 255 0 255
25 0 116 255 0 255
25 0 117 255 0 255
25 0 118 255 0 255
25 0 120 255 0 255
25 0 121 255 0 255
25 0 122 255 0 255
25 0 123 255 0 255
25 0 126 255 0 255
25 0 131 255 0 255
25 1 45 255 200 0
25 1 46 255 200 0
25 1 48 255 200 0
25 1 49 255 200 0
25 1 50 255 200 0
25 1 51 75 0 75
25 1 52 75 0 75
25 1 53 75 0 75
25 1 54 75 0 75
25 1 55 75 0 75
25 1 56 75 0 75
25 1 57 75 0 75
25 1 58 75 0 75
25 1 59 75 0 75
25 1 60 75 0 75
25 1 61 75 0 75
25 1 62 75 0 75
25 1 63 75 0 75
25 1 64 75 0 75
25 1 65 75 0 75
25 1 66 75 0 75
25 1 82 100 150 245
25 1 83 100 150 245
25 1 84 100 150 245
25 1 85 100 150 245
25 1 92 255 0 255
25 1 93 255 0 255
25 1 94 255 0 255
25 1 98 255 0 255
25 1 99 255 0 255
25 1 101 255 0 255
25 1 102 255 0 255
25 1 103 255 0 255
25 1 104 255 0 255
25 1 105 255 0 255
25 1 106 255 0 255
25 1 107 255 0 255
25 1 108 255 0 255
25 1 109 255 0 255
25 1 110 255 0 255
25 1 111 255 0 255
25 1 112 255 0 255
25 1 113 255 0 255
25 1 114 255 0 255
25 1 115 255 0 255
25 1 116 255 0 255
25 1 117 255 0 255
25 1 118 255 0 255
25 1 119 255 0 255
25 1 120 255 0 255
25 1 121 255 0 255
25 1 122 255 0 255
25 1 123 255 0 255
25 1 124 255 0 255
25 1 125 255 0 255
25 1 126 255 0 255
25 1 127 255 0 255
25 1 128 255 0 255
25 1 129 255 0 255
25 1 130 255 0 255
25 1 131 255 0 255
25 1 132 255 0 255
25 1 133 255 0 255
25 1 134 255 0 255
25 1 135 255 0 255
25 1 136 255 0 255
25 1 137 255 0 255
25 1 138 255 0 255
25 1 139 255 0 255
25 1 140 255 0 255
25 1 141 255 0 255
25 1 142 255 0 255
25 1 143 255 0 255
25 1 144 255 0 255
25 1 145 255 0 255
25 1 146 255 0 255
25 1 147 255 0 255
25 1 148 255 0 255
25 1 149 255 0 255
25 1 150 255 0 255
25 1 151 255 0 255
25 1 152 255 0 255
25 1 153 255 0 255
25 1 154 255 0 255
25 1 155 255 0 255
25 1 156 255 0 255
25 1 157 255 0 255
25 1 158 255 0 255
25 1 159 255 0 255
25 1 160 255 0 255
25 1 161 255 0 255
25 1 162 255 0 255
25 1 163 255 0 255
25 1 164 255 0 255
25 1 165 255 0 255
25 1 166 255 0 255
25 1 167 255 0 255
25 1 168 255 0 255
25 1 169 255 0 255
25 1 170 75 0 75
25 1 171 75 0 75
25 1 172 75 0 75
25 1 173 75 0 75
25 1 174 75 0 75
25 1 175 75 0 75
25 1 176 75 0 75
25 2 48 255 200 0
25 2 49 255 200 0
25 2 50 255 200 0
25 2 51 255 200 0
25 2 83 100 150 245
25 2 84 100 150 245
25 2 85 100 150 245
25 2 86 100 150 245
25 2 110 255 0 255
25 2 117 255 0 255
25 2 118 255 0 255
25 2 119 255 0 255
25 2 124 255 0 255
25 2 125 255 0 255
25 2 128 255 0 255
25 2 129 255 0 255
25 2 130 255 0 255
25 2 131 255 0 255
25 2 137 255 0 255
25 2 138 255 0 255
25 2 171 75 0 75
25 2 172 75 0 75
25 2 173 75 0 75
25 2 174 75 0 75
25 2 175 75 0 75
25 2 176 75 0 75
25 2 177 75 0 75
25 2 178 75 0 75
25 2 179 75 0 75
25 2 180 75 0 75
25 2 181 75 0 75
25 2 182 75 0 75
25 2 183 75 0 75
25 2 184 75 0 75
25 2 185 75 0 75
25 2 186 75 0 75
25 2 187 75 0 75
25 2 188 75 0 75
25 2 189 75 0 75
25 2 190 75 0 75
25 2 191 255 150 255
25 2 192 100 150 245
25 2 193 100 150 245
25 2 194 255 150 255
25 2 195 255 150 255
25 2 196 75 0 75
25 2 197 75 0 75
25 2 198 75 0 75
25 2 201 75 0 75
25 2 202 75 0 75
25 2 210 75 0 75
25 3 47 255 200 0
25 3 48 255 200 0
25 3 49 255 200 0
25 3 50 255 200 0
25 3 51 255 200 0
25 3 83 100 150 245
25 3 84 100 150 245
25 3 85 100 150 245
25 3 86 100 150 245
25 3 192 100 150 245
25 3 193 100 150 245
25 3 194 100 150 245
25 3 204 75 0 75
25 3 208 75 0 75
25 3 210 75 0 75
25 3 212 75 0 75
25 3 213 75 0 75
25 3 214 75 0 75
25 3 215 75 0 75
25 3 216 75 0 75
25 3 217 75 0 75
25 3 218 255 200 0
25 3 219 255 200 0
25 4 47 255 200 0
25 4 48 255 200 0
25 4 49 255 200 0
25 4 50 255 200 0
25 4 51 255 200 0
25 4 75 100 150 245
25 4 76 100 150 245
25 4 77 100 150 245
25 4 84 100 150 245
25 4 85 100 150 245
25 4 86 100 150 245
25 4 192 100 150 245
25 4 193 100 150 245
25 4 194 100 150 245
25 4 195 100 150 245
25 4 217 255 200 0
25 4 218 255 200 0
25 4 219 255 200 0
25 4 220 255 200 0
25 5 47 255 200 0
25 5 48 255 200 0
25 5 49 255 200 0
25 5 50 255 200 0
25 5 51 255 200 0
25 5 52 255 200 0
25 5 69 100 150 245
25 5 70 100 150 245
25 5 71 100 150 245
25 5 72 100 150 245
25 5 73 100 150 245
25 5 75 100 150 245
25 5 76 100 150 245
25 5 77 100 150 245
25 5 78 100 150 245
25 5 80 100 150 245
25 5 81 100 150 245
25 5 82 100 150 245
25 5 83 100 150 245
25 5 84 100 150 245
25 5 85 100 150 245
25 5 86 100 150 245
25 5 192 100 150 245
25 5 193 100 150 245
25 5 194 100 150 245
25 5 195 100 150 245
25 5 217 255 200 0
25 5 218 255 200 0
25 5 219 255 200 0
25 6 47 255 200 0
25 6 48 255 200 0
25 6 49 255 200 0
25 6 50 255 200 0
25 6 51 255 200 0
25 6 52 255 200 0
25 6 70 100 150 245
25 6 71 100 150 245
25 6 72 100 150 245
25 6 73 100 150 245
25 6 75 100 150 245
25 6 76 100 150 245
25 6 77 100 150 245
25 6 81 100 150 245
25 6 82 100 150 245
25 6 83 100 150 245
25 6 84 100 150 245
25 6 85 100 150 245
25 6 192 100 150 245
25 6 193 100 150 245
25 6 194 100 150 245
25 6 217 255 200 0
25 6 218 255 200 0
25 6 219 255 200 0
25 7 45 255 200 0
25 7 46 255 200 0
25 7 47 255 200 0
25 7 48 255 200 0
25 7 49 255 200 0
25 7 50 255 200 0
25 7 51 255 200 0
25 7 52 255 200 0
25 7 73 100 150 245
25 7 74 100 150 245
25 7 75 100 150 245
25 7 76 100 150 245
25 7 77 100 150 245
25 7 78 100 150 245
25 7 79 100 150 245
25 7 80 100 150 245
25 7 81 100 150 245
25 7 82 100 150 245
25 7 83 100 150 245
25 7 84 100 150 245
25 7 192 100 150 245
25 7 193 100 150 245
25 7 194 100 150 245
25 7 217 255 200 0
25 7 218 255 200 0
25 7 219 255 200 0
25 7 220 255 200 0
25 7 221 255 200 0
25 8 47 255 200 0
25 8 48 255 200 0
25 8 49 255 200 0
25 8 50 255 200 0
25 8 51 255 200 0
25 8 52 255 200 0
25 8 218 255 200 0
25 8 219 255 200 0
25 8 220 255 200 0
25 8 221 255 200 0
25 9 46 255 200 0
25 9 47 255 200 0
25 9 48 255 200 0
25 9 49 255 200 0
25 9 50 255 200 0
25 9 51 255 200 0
25 9 52 255 200 0
25 9 218 255 200 0
25 9 219 255 200 0
25 9 220 255 200 0
25 9 221 255 200 0
25 10 47 255 200 0
25 10 48 255 200 0
25 10 49 255 200 0
25 10 50 255 200 0
25 10 51 255 200 0
25 10 52 255 200 0
25 10 218 255 200 0
25 10 219 255 200 0
25 10 220 255 200 0
25 10 221 255 200 0
25 11 47 255 200 0
25 11 48 255 200 0
25 11 49 255 200 0
25 11 50 255 200 0
25 11 51 255 200 0
25 11 218 255 200 0
25 11 219 255 200 0
25 11 220 255 200 0
25 11 221 255 200 0
25 12 11 255 200 0
25 12 12 255 200 0
25 12 13 255 200 0
25 12 45 255 200 0
25 12 47 255 200 0
25 12 48 255 200 0
25 12 49 255 200 0
25 12 50 255 200 0
25 12 51 255 200 0
25 12 218 255 200 0
25 12 219 255 200 0
25 12 220 255 200 0
25 12 221 255 200 0
25 13 11 255 200 0
25 13 12 255 200 0
25 13 13 255 200 0
25 13 47 255 200 0
25 13 48 255 200 0
25 13 49 255 200 0
25 13 50 255 200 0
25 13 51 255 200 0
25 13 217 255 200 0
25 13 218 255 200 0
25 13 219 255 200 0
25 13 220 255 200 0
25 13 221 255 200 0
25 14 12 255 200 0
25 14 13 255 200 0
25 14 45 255 200 0
25 14 47 255 200 0
25 14 48 255 200 0
25 14 49 255 200 0
25 14 50 255 200 0
25 14 51 255 200 0
25 14 217 255 200 0
25 14 218 255 200 0
