ply
format ascii 1.0
element vertex 815
property float x
property float y
property float z
property uchar red
property uchar green
property uchar blue
end_header
3 0 13 255 0 255
3 0 14 255 0 255
3 0 15 255 0 255
3 0 16 255 0 255
3 0 17 255 0 255
3 0 18 255 0 255
4 0 12 255 0 255
4 0 13 255 0 255
4 0 14 255 0 255
4 0 15 255 0 255
4 0 16 255 0 255
4 0 17 255 0 255
4 0 18 255 0 255
4 0 19 255 0 255
5 0 11 255 0 255
5 0 12 255 0 255
5 0 13 255 0 255
5 0 14 255 0 255
5 0 15 100 150 245
5 0 16 75 0 75
5 0 17 75 0 75
5 0 18 75 0 75
5 0 19 255 0 255
5 0 20 255 0 255
5 1 15 100 150 245
6 0 11 255 0 255
6 0 12 255 0 255
6 0 13 255 0 255
6 0 14 100 150 245
6 0 15 100 150 245
6 0 16 100 150 245
6 0 17 30 60 150
6 0 18 75 0 75
6 0 19 255 0 255
6 0 20 255 0 255
6 1 14 100 150 245
6 1 15 100 150 245
6 1 16 100 150 245
6 1 17 30 60 150
7 0 10 255 0 255
7 0 11 255 0 255
7 0 12 255 150 255
7 0 13 100 150 245
7 0 14 100 150 245
7 0 15 100 150 245
7 0 16 100 150 245
7 0 17 75 0 75
7 0 18 75 0 75
7 0 19 75 0 75
7 0 20 255 0 255
7 0 21 255 0 255
7 1 14 100 150 245
7 1 15 100 150 245
7 1 16 255 0 0
7 1 17 255 0 0
7 1 19 255 0 0
7 2 16 255 0 0
7 2 17 255 0 0
7 2 19 255 0 0
8 0 9 255 0 255
8 0 10 0 175 0
8 0 11 100 150 245
8 0 12 100 150 245
8 0 13 100 150 245
8 0 14 100 150 245
8 0 15 100 150 245
8 0 16 75 0 75
8 0 17 0 175 0
8 0 18 0 175 0
8 0 19 75 0 75
8 0 20 75 0 75
8 0 21 255 0 255
8 0 22 255 0 255
8 1 11 100 150 245
8 1 12 100 150 245
8 1 13 100 150 245
8 1 14 100 150 245
8 1 15 100 150 245
8 1 16 255 0 0
8 1 17 255 240 150
8 1 18 0 175 0
8 1 19 255 0 0
8 2 16 255 0 0
8 2 17 255 0 0
8 2 19 255 0 0
9 0 8 255 0 255
9 0 9 0 175 0
9 0 10 0 175 0
9 0 11 100 150 245
9 0 12 100 150 245
9 0 13 100 150 245
9 0 14 100 150 245
9 0 15 75 0 75
9 0 16 255 200 0
9 0 17 255 200 0
9 0 18 0 175 0
9 0 19 0 175 0
9 0 20 75 0 75
9 0 21 255 0 255
9 0 22 255 0 255
9 0 23 255 0 255
9 1 11 100 150 245
9 1 12 100 150 245
9 1 13 100 150 245
9 1 14 100 150 245
9 1 16 255 200 0
9 1 17 255 200 0
9 1 18 0 175 0
9 1 19 0 175 0
9 1 23 100 150 245
9 2 11 135 60 0
9 2 16 255 200 0
9 2 17 255 200 0
10 0 7 255 150 255
10 0 8 100 150 245
10 0 9 100 150 245
10 0 10 0 175 0
10 0 11 0 175 0
10 0 12 100 150 245
10 0 13 75 0 75
10 0 14 75 0 75
10 0 15 255 200 0
10 0 16 255 200 0
10 0 17 255 200 0
10 0 18 0 175 0
10 0 19 0 175 0
10 0 20 0 175 0
10 0 21 75 0 75
10 0 22 255 0 255
10 0 23 255 0 255
10 0 24 255 0 255
10 1 8 100 150 245
10 1 9 100 150 245
10 1 10 135 60 0
10 1 11 135 60 0
10 1 14 255 200 0
10 1 15 255 200 0
10 1 16 255 200 0
10 1 17 255 200 0
10 1 18 0 175 0
10 1 19 0 175 0
10 1 24 100 150 245
10 2 10 135 60 0
10 2 11 135 60 0
10 2 12 135 60 0
10 2 14 255 200 0
10 2 15 255 200 0
10 2 16 255 200 0
10 2 17 255 200 0
11 0 6 100 150 245
11 0 7 100 150 245
11 0 8 100 150 245
11 0 9 100 150 245
11 0 10 0 175 0
11 0 11 135 60 0
11 0 12 75 0 75
11 0 13 255 200 0
11 0 14 255 200 0
11 0 15 255 200 0
11 0 18 255 200 0
11 0 19 0 175 0
11 0 20 0 175 0
11 0 21 75 0 75
11 0 22 255 0 255
11 0 23 255 0 255
11 0 24 255 0 255
11 0 25 255 0 255
11 1 6 100 150 245
11 1 7 100 150 245
11 1 8 100 150 245
11 1 9 100 150 245
11 1 10 135 60 0
11 1 11 135 60 0
11 1 12 255 200 0
11 1 13 255 200 0
11 1 14 255 200 0
11 1 15 255 200 0
11 1 16 255 200 0
11 1 17 255 200 0
11 1 18 255 200 0
11 1 19 0 175 0
11 2 10 135 60 0
11 2 11 135 60 0
11 2 13 255 200 0
11 2 14 255 200 0
11 2 18 255 200 0
12 0 6 0 175 0
12 0 7 100 150 245
12 0 8 100 150 245
12 0 9 100 150 245
12 0 10 75 0 75
12 0 11 75 0 75
12 0 12 255 200 0
12 0 13 255 200 0
12 0 19 0 175 0
12 0 20 0 175 0
12 0 21 0 175 0
12 0 22 75 0 75
12 0 23 255 0 255
12 0 24 255 0 255
12 0 25 255 0 255
12 1 6 100 150 245
12 1 7 100 150 245
12 1 11 255 200 0
12 1 12 255 200 0
12 1 13 255 200 0
12 1 15 255 200 0
12 1 16 255 200 0
12 1 17 255 200 0
12 1 18 255 200 0
12 1 19 255 200 0
12 1 20 0 175 0
12 2 11 255 200 0
12 2 12 255 200 0
12 2 13 255 200 0
13 0 5 75 0 75
13 0 6 0 175 0
13 0 7 100 150 245
13 0 8 75 0 75
13 0 9 75 0 75
13 0 10 255 200 0
13 0 11 255 200 0
13 0 19 255 200 0
13 0 20 0 175 0
13 0 21 0 175 0
13 0 22 0 175 0
13 0 23 75 0 75
13 0 24 255 0 255
13 0 25 255 0 255
13 0 26 100 150 245
13 1 5 135 60 0
13 1 6 135 60 0
13 1 9 255 200 0
13 1 10 255 200 0
13 1 11 255 200 0
13 1 12 255 200 0
13 1 13 255 200 0
13 1 14 255 200 0
13 1 15 255 200 0
13 1 16 255 200 0
13 1 19 255 200 0
13 1 20 255 200 0
13 1 26 100 150 245
13 2 5 135 60 0
13 2 6 135 60 0
13 2 7 135 60 0
13 2 9 255 200 0
13 2 10 255 200 0
13 2 11 255 200 0
13 2 15 255 200 0
13 2 20 255 200 0
14 0 4 75 0 75
14 0 5 75 0 75
14 0 6 75 0 75
14 0 7 75 0 75
14 0 8 255 200 0
14 0 9 255 200 0
14 0 10 255 200 0
14 0 20 0 175 0
14 0 21 0 175 0
14 0 22 0 175 0
14 0 23 75 0 75
14 0 24 255 0 255
14 0 25 255 0 255
14 0 26 255 0 255
14 0 27 100 150 245
14 1 6 135 60 0
14 1 8 255 200 0
14 1 9 255 200 0
14 1 10 255 200 0
14 1 12 255 200 0
14 1 13 255 200 0
14 1 14 255 200 0
14 1 15 255 200 0
14 1 16 255 200 0
14 1 19 255 200 0
14 1 20 255 200 0
14 1 21 0 175 0
14 2 6 135 60 0
14 2 8 255 200 0
14 2 9 255 200 0
14 2 13 255 200 0
14 2 15 255 200 0
14 2 20 255 200 0
15 0 3 75 0 75
15 0 4 75 0 75
15 0 5 75 0 75
15 0 6 75 0 75
15 0 7 255 200 0
15 0 8 255 200 0
15 0 10 255 200 0
15 0 21 0 175 0
15 0 22 0 175 0
15 0 23 0 175 0
15 0 24 75 0 75
15 0 25 255 0 255
15 0 26 255 0 255
15 0 27 100 150 245
15 0 28 255 0 255
15 1 7 255 200 0
15 1 8 255 200 0
15 1 10 255 200 0
15 1 11 255 200 0
15 1 13 255 200 0
15 1 14 255 200 0
15 1 16 255 200 0
15 1 17 255 200 0
15 1 22 0 175 0
15 1 28 100 150 245
15 2 7 255 200 0
15 2 8 255 200 0
15 2 13 255 200 0
15 2 16 255 200 0
15 2 17 255 200 0
16 0 2 75 0 75
16 0 3 75 0 75
16 0 4 75 0 75
16 0 5 75 0 75
16 0 6 75 0 75
16 0 7 255 200 0
16 0 8 255 200 0
16 0 21 0 175 0
16 0 22 0 175 0
16 0 23 0 175 0
16 0 24 0 175 0
16 0 25 100 150 245
16 0 26 255 0 255
16 0 27 255 0 255
16 0 28 255 30 30
16 0 29 255 0 255
16 1 7 255 200 0
16 1 8 255 200 0
16 1 10 255 200 0
16 1 11 255 200 0
16 1 12 255 200 0
16 1 13 255 200 0
16 1 22 0 175 0
16 1 23 0 175 0
16 1 28 255 30 30
16 1 29 255 30 30
16 2 7 255 200 0
16 2 8 255 200 0
16 2 11 255 200 0
16 2 12 255 200 0
16 2 13 255 200 0
17 0 1 75 0 75
17 0 2 75 0 75
17 0 3 75 0 75
17 0 4 255 120 50
17 0 5 75 0 75
17 0 6 75 0 75
17 0 7 75 0 75
17 0 8 255 200 0
17 0 9 255 200 0
17 0 21 0 175 0
17 0 22 0 175 0
17 0 24 0 175 0
17 0 25 100 150 245
17 0 26 100 150 245
17 0 27 255 0 255
17 0 28 255 30 30
17 0 29 255 0 255
17 1 7 255 200 0
17 1 8 255 200 0
17 1 9 255 200 0
17 1 22 0 175 0
17 1 23 0 175 0
17 1 26 100 150 245
17 1 28 255 30 30
17 2 7 255 200 0
17 2 8 255 200 0
18 0 0 75 0 75
18 0 1 75 0 75
18 0 2 255 200 0
18 0 3 75 0 75
18 0 4 255 120 50
18 0 5 75 0 75
18 0 6 75 0 75
18 0 7 75 0 75
18 0 8 255 200 0
18 0 9 255 200 0
18 0 22 0 175 0
18 0 23 0 175 0
18 0 24 0 175 0
18 0 25 0 175 0
18 0 26 100 150 245
18 0 27 255 0 255
18 0 28 255 0 255
18 0 29 255 0 255
18 0 30 255 0 255
18 0 31 75 0 75
18 1 1 255 200 0
18 1 2 255 200 0
18 1 7 255 200 0
18 1 8 255 200 0
18 1 9 255 200 0
18 1 11 255 200 0
18 1 22 0 175 0
18 1 23 0 175 0
18 1 24 0 175 0
18 1 25 255 240 150
18 1 26 100 150 245
18 2 1 255 200 0
18 2 2 255 200 0
18 2 8 255 200 0
18 2 9 255 200 0
18 2 11 255 200 0
18 2 12 255 200 0
18 2 23 0 175 0
18 2 24 255 240 150
18 2 25 255 240 150
19 0 0 255 200 0
19 0 1 255 200 0
19 0 2 255 200 0
19 0 3 75 0 75
19 0 4 75 0 75
19 0 5 255 120 50
19 0 6 75 0 75
19 0 7 75 0 75
19 0 8 255 200 0
19 0 9 255 200 0
19 0 10 255 200 0
19 0 22 0 175 0
19 0 23 0 175 0
19 0 24 0 175 0
19 0 25 0 175 0
19 0 26 75 0 75
19 0 27 75 0 75
19 0 28 255 0 255
19 0 29 255 0 255
19 0 30 255 0 255
19 0 31 75 0 75
19 1 0 255 200 0
19 1 1 255 200 0
19 1 2 255 200 0
19 1 3 255 200 0
19 1 8 255 200 0
19 1 9 255 200 0
19 1 22 0 175 0
19 1 23 0 175 0
19 1 24 0 175 0
19 1 25 0 175 0
19 2 0 255 200 0
19 2 1 255 200 0
19 2 2 255 200 0
19 2 3 255 200 0
19 2 9 255 200 0
19 2 23 0 175 0
19 2 24 0 175 0
20 0 0 255 200 0
20 0 3 255 200 0
20 0 4 75 0 75
20 0 5 255 120 50
20 0 6 255 120 50
20 0 9 255 200 0
20 0 10 255 200 0
20 0 11 255 200 0
20 0 24 0 175 0
20 0 26 75 0 75
20 0 27 75 0 75
20 0 28 255 0 255
20 0 29 255 0 255
20 0 30 255 0 255
20 0 31 255 0 255
20 1 0 255 200 0
20 1 3 255 200 0
20 1 4 255 200 0
20 1 9 255 200 0
20 1 10 255 200 0
20 1 22 0 175 0
20 1 23 0 175 0
20 1 24 0 175 0
20 2 0 255 200 0
20 2 3 255 200 0
20 2 4 255 200 0
20 2 9 255 200 0
20 2 10 255 200 0
21 0 3 255 200 0
21 0 4 255 200 0
21 0 5 75 0 75
21 0 6 255 120 50
21 0 10 255 200 0
21 0 11 255 120 50
21 0 26 75 0 75
21 0 27 75 0 75
21 0 28 75 0 75
21 0 29 255 0 255
21 0 30 255 0 255
21 0 31 255 0 255
21 1 0 255 200 0
21 1 1 255 200 0
21 1 3 255 200 0
21 1 4 255 200 0
21 1 5 255 200 0
21 1 10 255 200 0
21 1 11 255 120 50
21 2 3 255 200 0
21 2 4 255 200 0
21 2 10 255 200 0
22 0 3 255 200 0
22 0 4 255 200 0
22 0 5 255 200 0
22 0 6 255 120 50
22 0 7 255 120 50
22 0 11 255 200 0
22 0 26 0 175 0
22 0 27 0 175 0
22 0 28 75 0 75
22 0 29 255 0 255
22 0 30 255 0 255
22 0 31 255 0 255
22 1 0 255 200 0
22 1 1 255 200 0
22 1 2 255 200 0
22 1 3 255 200 0
22 1 4 255 200 0
22 1 5 255 200 0
22 1 10 255 200 0
22 1 11 255 200 0
22 1 26 0 175 0
22 1 27 0 175 0
22 2 4 255 200 0
22 2 5 255 200 0
23 0 2 255 200 0
23 0 3 255 200 0
23 0 5 255 200 0
23 0 7 255 120 50
23 0 9 255 200 0
23 0 10 255 200 0
23 0 11 255 200 0
23 0 15 0 175 0
23 0 16 0 175 0
23 0 17 0 175 0
23 0 26 0 175 0
23 0 27 0 175 0
23 0 28 75 0 75
23 0 29 100 150 245
23 0 30 255 0 255
23 0 31 255 0 255
23 1 3 255 200 0
23 1 5 255 200 0
23 1 9 255 200 0
23 1 10 255 200 0
23 1 11 255 200 0
23 1 15 0 175 0
23 1 16 0 175 0
23 1 17 0 175 0
23 1 25 255 200 0
23 1 26 255 200 0
23 1 27 0 175 0
23 1 28 0 175 0
23 2 5 255 200 0
23 2 10 255 200 0
23 2 16 0 175 0
23 2 25 255 200 0
23 2 26 255 200 0
23 2 27 0 175 0
24 0 5 255 200 0
24 0 6 255 200 0
24 0 8 255 200 0
24 0 9 255 200 0
24 0 16 0 175 0
24 0 17 0 175 0
24 0 18 255 200 0
24 0 26 255 200 0
24 0 28 0 175 0
24 0 29 0 175 0
24 0 30 255 0 255
24 0 31 255 0 255
24 1 0 255 200 0
24 1 5 255 200 0
24 1 6 255 200 0
24 1 8 255 200 0
24 1 9 255 200 0
24 1 15 0 175 0
24 1 16 0 175 0
24 1 17 0 175 0
24 1 18 0 175 0
24 1 24 255 200 0
24 1 25 255 200 0
24 1 26 255 200 0
24 1 27 0 175 0
24 1 28 0 175 0
24 1 29 0 175 0
24 1 30 100 150 245
24 2 5 255 200 0
24 2 6 255 200 0
24 2 18 0 175 0
24 2 19 0 175 0
24 2 23 255 200 0
24 2 24 255 200 0
24 2 25 255 200 0
24 2 26 255 200 0
24 2 27 0 175 0
24 2 28 0 175 0
24 2 29 0 175 0
24 3 18 0 175 0
24 3 19 0 175 0
25 0 6 255 200 0
25 0 7 255 200 0
25 0 8 255 200 0
25 0 9 255 200 0
25 0 15 0 175 0
25 0 17 0 175 0
25 0 18 255 200 0
25 0 29 0 175 0
25 0 31 255 0 255
25 1 6 255 200 0
25 1 7 255 200 0
25 1 8 255 200 0
25 1 9 255 200 0
25 1 14 0 175 0
25 1 15 0 175 0
25 1 16 0 175 0
25 1 17 0 175 0
25 1 18 0 175 0
25 1 19 0 175 0
25 1 26 255 200 0
25 1 27 0 175 0
25 1 29 0 175 0
25 2 6 255 200 0
25 2 7 255 200 0
25 2 14 0 175 0
25 2 15 0 175 0
25 2 16 0 175 0
25 2 17 0 175 0
25 2 18 0 175 0
25 2 19 0 175 0
25 2 20 0 175 0
25 2 22 255 200 0
25 2 26 255 200 0
25 2 27 0 175 0
25 2 28 0 175 0
25 3 14 0 175 0
25 3 15 0 175 0
25 3 17 0 175 0
25 3 18 0 175 0
25 3 19 0 175 0
25 3 20 0 175 0
25 3 22 255 200 0
26 0 7 255 200 0
26 0 9 255 200 0
26 0 17 255 200 0
26 0 29 0 175 0
26 0 30 75 0 75
26 0 31 75 0 75
26 1 7 255 200 0
26 1 9 255 200 0
26 1 13 0 175 0
26 1 14 0 175 0
26 1 15 0 175 0
26 1 17 255 200 0
26 1 18 0 175 0
26 1 20 0 175 0
26 1 21 255 200 0
26 1 27 255 200 0
26 1 28 255 200 0
26 1 29 0 175 0
26 1 30 0 175 0
26 2 7 255 200 0
26 2 13 0 175 0
26 2 14 0 175 0
26 2 15 0 175 0
26 2 16 0 175 0
26 2 17 0 175 0
26 2 18 0 175 0
26 2 19 0 175 0
26 2 20 0 175 0
26 2 21 255 200 0
26 2 22 255 200 0
26 2 27 255 200 0
26 2 28 255 200 0
26 3 13 0 175 0
26 3 14 0 175 0
26 3 15 0 175 0
26 3 16 0 175 0
26 3 17 0 175 0
26 3 18 0 175 0
26 3 19 0 175 0
26 3 20 0 175 0
27 0 9 255 200 0
27 0 10 255 200 0
27 0 30 0 175 0
27 0 31 100 150 245
27 1 9 255 200 0
27 1 13 0 175 0
27 1 14 0 175 0
27 1 15 255 200 0
27 1 16 255 200 0
27 1 21 255 200 0
27 1 22 255 200 0
27 1 28 255 200 0
27 2 13 0 175 0
27 2 14 0 175 0
27 2 15 0 175 0
27 2 16 0 175 0
27 2 17 0 175 0
27 2 18 135 60 0
27 2 19 135 60 0
27 2 21 255 200 0
27 2 22 255 200 0
27 2 28 255 200 0
27 3 13 0 175 0
27 3 14 0 175 0
27 3 15 0 175 0
27 3 16 0 175 0
27 3 18 0 175 0
27 3 21 255 200 0
28 0 9 255 200 0
28 0 10 255 200 0
28 0 31 75 0 75
28 1 12 0 175 0
28 1 13 0 175 0
28 1 14 255 200 0
28 1 15 135 60 0
28 1 16 135 60 0
28 1 17 135 60 0
28 1 18 135 60 0
28 1 22 255 200 0
28 1 28 255 200 0
28 1 29 255 200 0
28 2 12 0 175 0
28 2 13 0 175 0
28 2 14 0 175 0
28 2 15 0 175 0
28 2 16 0 175 0
28 2 17 135 60 0
28 2 18 135 60 0
28 2 19 135 60 0
28 2 22 255 200 0
28 3 13 0 175 0
28 3 15 0 175 0
28 3 16 0 175 0
28 3 18 135 60 0
28 3 19 135 60 0
28 3 22 255 200 0
29 0 8 255 200 0
29 0 9 255 200 0
29 0 10 255 200 0
29 0 11 0 175 0
29 1 11 0 175 0
29 1 12 0 175 0
29 1 13 0 175 0
29 1 15 135 60 0
29 1 16 135 60 0
29 1 17 135 60 0
29 1 18 135 60 0
29 1 22 255 200 0
29 2 10 0 175 0
29 2 11 0 175 0
29 2 12 0 175 0
29 2 13 0 175 0
29 2 15 135 60 0
29 2 16 135 60 0
29 2 17 135 60 0
29 2 18 135 60 0
29 2 19 135 60 0
29 2 22 255 200 0
29 2 29 255 200 0
29 3 13 0 175 0
29 3 14 0 175 0
29 3 15 0 175 0
29 3 17 135 60 0
29 3 18 135 60 0
29 3 22 255 200 0
30 0 7 255 200 0
30 0 8 255 200 0
30 0 10 0 175 0
30 0 11 0 175 0
30 1 9 0 175 0
30 1 10 0 175 0
30 1 11 0 175 0
30 1 12 0 175 0
30 1 13 0 175 0
30 1 18 135 60 0
30 2 7 0 175 0
30 2 8 0 175 0
30 2 9 0 175 0
30 2 10 0 175 0
30 2 11 0 175 0
30 2 13 0 175 0
30 2 15 0 175 0
30 2 16 135 60 0
30 2 17 135 60 0
30 2 18 135 60 0
30 2 19 135 60 0
30 2 20 0 175 0
30 3 15 0 175 0
30 3 16 0 175 0
31 0 7 255 200 0
31 0 11 0 175 0
31 1 7 0 175 0
31 1 8 0 175 0
31 1 9 0 175 0
31 1 10 0 175 0
31 1 11 0 175 0
31 1 14 0 175 0
31 2 7 0 175 0
31 2 8 0 175 0
31 2 9 0 175 0
31 2 10 0 175 0
31 2 11 0 175 0
31 2 14 0 175 0
31 2 15 0 175 0
31 2 18 0 175 0
31 2 19 0 175 0
31 2 20 0 175 0
31 2 21 0 175 0
31 2 23 255 200 0
31 3 14 0 175 0
31 3 15 0 175 0
31 3 18 0 175 0
31 3 19 0 175 0
31 3 20 0 175 0
31 3 21 0 175 0
