ply
format ascii 1.0
element vertex 2294
property float x
property float y
property float z
property uchar red
property uchar green
property uchar blue
end_header
39 2 189 100 150 245
39 2 192 100 150 245
39 2 195 100 150 245
39 2 196 100 150 245
39 3 26 100 150 245
39 3 27 100 150 245
39 3 195 100 150 245
39 3 196 100 150 245
39 3 197 100 150 245
39 4 25 100 150 245
39 4 26 100 150 245
39 4 195 100 150 245
39 4 196 100 150 245
39 4 197 100 150 245
39 5 26 100 150 245
39 5 195 100 150 245
39 5 196 100 150 245
39 5 197 100 150 245
39 6 26 100 150 245
39 6 195 100 150 245
39 6 196 100 150 245
39 6 204 100 150 245
39 7 26 100 150 245
39 7 198 100 150 245
39 7 204 100 150 245
39 8 25 100 150 245
39 8 204 100 150 245
39 8 205 100 150 245
39 9 26 100 150 245
39 9 204 100 150 245
39 10 26 100 150 245
39 10 204 100 150 245
39 11 204 100 150 245
39 12 204 100 150 245
39 13 204 100 150 245
39 14 204 100 150 245
40 0 62 100 150 245
40 0 63 100 150 245
40 0 65 100 150 245
40 0 66 100 150 245
40 0 69 100 150 245
40 0 70 100 150 245
40 0 71 100 150 245
40 0 78 100 150 245
40 0 79 100 150 245
40 0 85 100 150 245
40 0 86 100 150 245
40 0 90 100 150 245
40 0 91 100 150 245
40 0 113 100 150 245
40 0 114 100 150 245
40 0 129 100 150 245
40 0 130 100 150 245
40 1 24 100 150 245
40 1 61 100 150 245
40 1 62 100 150 245
40 1 91 100 150 245
40 1 92 100 150 245
40 1 94 100 150 245
40 1 95 100 150 245
40 1 96 100 150 245
40 1 99 100 150 245
40 1 100 100 150 245
40 1 105 100 150 245
40 1 106 100 150 245
40 1 108 100 150 245
40 1 109 100 150 245
40 1 110 100 150 245
40 1 112 100 150 245
40 1 113 100 150 245
40 1 117 100 150 245
40 1 118 100 150 245
40 1 119 100 150 245
40 1 120 100 150 245
40 1 121 100 150 245
40 1 122 100 150 245
40 1 127 100 150 245
40 1 128 100 150 245
40 1 129 100 150 245
40 1 130 100 150 245
40 1 131 100 150 245
40 1 132 100 150 245
40 1 133 100 150 245
40 1 134 100 150 245
40 1 135 100 150 245
40 1 137 100 150 245
40 1 138 100 150 245
40 1 139 100 150 245
40 1 140 100 150 245
40 1 141 100 150 245
40 1 142 100 150 245
40 1 144 100 150 245
40 1 145 100 150 245
40 1 147 100 150 245
40 1 148 100 150 245
40 1 151 100 150 245
40 1 152 100 150 245
40 1 154 100 150 245
40 1 155 100 150 245
40 1 157 100 150 245
40 1 158 100 150 245
40 1 161 100 150 245
40 1 162 100 150 245
40 1 166 100 150 245
40 1 167 100 150 245
40 1 174 100 150 245
40 1 175 100 150 245
40 1 176 100 150 245
40 1 177 100 150 245
40 1 178 100 150 245
40 1 179 100 150 245
40 1 181 100 150 245
40 2 24 100 150 245
40 2 25 100 150 245
40 2 183 100 150 245
40 2 185 100 150 245
40 2 186 100 150 245
40 2 188 100 150 245
40 2 191 100 150 245
40 2 194 100 150 245
40 2 195 100 150 245
40 3 25 100 150 245
40 3 193 100 150 245
40 3 194 100 150 245
40 3 195 100 150 245
40 4 24 100 150 245
40 4 193 100 150 245
40 4 194 100 150 245
40 4 195 100 150 245
40 5 25 100 150 245
40 5 193 100 150 245
40 5 194 100 150 245
40 5 195 100 150 245
40 6 24 100 150 245
40 6 193 100 150 245
40 6 194 100 150 245
40 6 195 100 150 245
40 6 204 100 150 245
40 7 25 100 150 245
40 7 197 100 150 245
40 7 198 100 150 245
40 7 204 100 150 245
40 7 205 100 150 245
40 8 24 100 150 245
40 8 197 100 150 245
40 8 198 100 150 245
40 8 199 100 150 245
40 8 205 100 150 245
40 9 25 100 150 245
40 9 196 100 150 245
40 9 197 100 150 245
40 9 198 100 150 245
40 9 199 100 150 245
40 9 204 100 150 245
40 9 205 100 150 245
40 10 24 100 150 245
40 10 196 100 150 245
40 10 197 100 150 245
40 10 205 100 150 245
40 11 196 100 150 245
40 11 197 100 150 245
40 11 204 100 150 245
40 11 205 100 150 245
40 12 205 100 150 245
40 13 205 100 150 245
40 14 205 100 150 245
41 0 60 100 150 245
41 0 62 100 150 245
41 0 63 100 150 245
41 0 66 100 150 245
41 0 67 100 150 245
41 0 71 100 150 245
41 0 72 100 150 245
41 0 80 100 150 245
41 0 81 100 150 245
41 0 86 100 150 245
41 0 87 100 150 245
41 0 88 100 150 245
41 0 111 100 150 245
41 0 114 100 150 245
41 0 115 100 150 245
41 0 116 100 150 245
41 0 117 100 150 245
41 0 123 100 150 245
41 0 124 100 150 245
41 0 125 100 150 245
41 0 126 100 150 245
41 0 127 100 150 245
41 1 22 100 150 245
41 1 58 100 150 245
41 1 59 100 150 245
41 1 92 100 150 245
41 1 93 100 150 245
41 1 94 100 150 245
41 1 96 100 150 245
41 1 97 100 150 245
41 1 100 100 150 245
41 1 101 100 150 245
41 1 102 100 150 245
41 1 106 100 150 245
41 1 107 100 150 245
41 1 108 100 150 245
41 1 110 100 150 245
41 1 111 100 150 245
41 1 122 100 150 245
41 1 123 100 150 245
41 1 124 100 150 245
41 1 125 100 150 245
41 1 127 100 150 245
41 1 128 100 150 245
41 1 132 100 150 245
41 1 133 100 150 245
41 1 134 100 150 245
41 1 135 100 150 245
41 1 136 100 150 245
41 1 137 100 150 245
41 1 139 100 150 245
41 1 140 100 150 245
41 1 141 100 150 245
41 1 142 100 150 245
41 1 143 100 150 245
41 1 144 100 150 245
41 1 145 100 150 245
41 1 146 100 150 245
41 1 147 100 150 245
41 1 150 100 150 245
41 1 151 100 150 245
41 1 153 100 150 245
41 1 154 100 150 245
41 1 156 100 150 245
41 1 157 100 150 245
41 1 160 100 150 245
41 1 161 100 150 245
41 1 164 100 150 245
41 1 165 100 150 245
41 1 166 100 150 245
41 1 172 100 150 245
41 1 173 100 150 245
41 1 174 100 150 245
41 1 175 100 150 245
41 1 178 100 150 245
41 1 179 100 150 245
41 1 181 100 150 245
41 2 23 100 150 245
41 2 59 100 150 245
41 2 183 100 150 245
41 2 185 100 150 245
41 2 188 100 150 245
41 2 191 100 150 245
41 2 192 100 150 245
41 2 193 100 150 245
41 2 194 100 150 245
41 3 24 100 150 245
41 3 48 100 150 245
41 3 192 100 150 245
41 3 193 100 150 245
41 4 22 100 150 245
41 4 23 100 150 245
41 4 191 100 150 245
41 4 192 100 150 245
41 4 193 100 150 245
41 5 23 100 150 245
41 5 191 100 150 245
41 5 192 100 150 245
41 5 193 100 150 245
41 6 23 100 150 245
41 6 191 100 150 245
41 6 192 100 150 245
41 6 193 100 150 245
41 6 194 100 150 245
41 6 197 100 150 245
41 6 198 100 150 245
41 6 199 100 150 245
41 6 205 100 150 245
41 7 22 100 150 245
41 7 23 100 150 245
41 7 191 100 150 245
41 7 195 100 150 245
41 7 196 100 150 245
41 7 197 100 150 245
41 7 199 100 150 245
41 7 205 100 150 245
41 7 206 100 150 245
41 8 22 100 150 245
41 8 195 100 150 245
41 8 196 100 150 245
41 8 199 100 150 245
41 8 205 100 150 245
41 8 206 100 150 245
41 9 23 100 150 245
41 9 194 100 150 245
41 9 195 100 150 245
41 9 196 100 150 245
41 9 205 100 150 245
41 9 206 100 150 245
41 10 21 100 150 245
41 10 23 100 150 245
41 10 195 100 150 245
41 10 196 100 150 245
41 10 197 100 150 245
41 10 198 100 150 245
41 10 199 100 150 245
41 10 200 100 150 245
41 10 205 100 150 245
41 10 206 100 150 245
41 11 20 100 150 245
41 11 194 100 150 245
41 11 195 100 150 245
41 11 196 100 150 245
41 11 197 100 150 245
41 11 198 100 150 245
41 11 205 100 150 245
41 11 206 100 150 245
41 12 19 100 150 245
41 12 196 100 150 245
41 12 197 100 150 245
41 12 198 100 150 245
41 12 205 100 150 245
41 13 205 100 150 245
41 13 206 100 150 245
41 14 19 100 150 245
41 14 205 100 150 245
41 14 206 100 150 245
42 0 60 100 150 245
42 0 61 100 150 245
42 0 63 100 150 245
42 0 64 100 150 245
42 0 67 100 150 245
42 0 68 100 150 245
42 0 72 100 150 245
42 0 73 100 150 245
42 0 74 100 150 245
42 0 81 100 150 245
42 0 82 100 150 245
42 0 83 100 150 245
42 0 88 100 150 245
42 0 89 100 150 245
42 0 90 100 150 245
42 0 111 100 150 245
42 0 112 100 150 245
42 0 113 100 150 245
42 0 116 100 150 245
42 0 117 100 150 245
42 0 118 100 150 245
42 0 119 100 150 245
42 0 120 100 150 245
42 0 121 100 150 245
42 1 21 100 150 245
42 1 58 100 150 245
42 1 89 100 150 245
42 1 90 100 150 245
42 1 94 100 150 245
42 1 95 100 150 245
42 1 97 100 150 245
42 1 98 100 150 245
42 1 102 100 150 245
42 1 103 100 150 245
42 1 108 100 150 245
42 1 109 100 150 245
42 1 125 100 150 245
42 1 126 100 150 245
42 1 127 100 150 245
42 1 128 100 150 245
42 1 129 100 150 245
42 1 130 100 150 245
42 1 131 100 150 245
42 1 132 100 150 245
42 1 134 100 150 245
42 1 135 100 150 245
42 1 136 100 150 245
42 1 137 100 150 245
42 1 138 100 150 245
42 1 139 100 150 245
42 1 140 100 150 245
42 1 141 100 150 245
42 1 142 100 150 245
42 1 143 100 150 245
42 1 144 100 150 245
42 1 145 100 150 245
42 1 149 100 150 245
42 1 150 100 150 245
42 1 152 100 150 245
42 1 153 100 150 245
42 1 155 100 150 245
42 1 156 100 150 245
42 1 158 100 150 245
42 1 159 100 150 245
42 1 163 100 150 245
42 1 164 100 150 245
42 1 171 100 150 245
42 1 172 100 150 245
42 1 178 100 150 245
42 1 179 100 150 245
42 1 181 100 150 245
42 2 21 100 150 245
42 2 183 100 150 245
42 2 185 100 150 245
42 2 187 100 150 245
42 2 188 100 150 245
42 2 190 100 150 245
42 2 191 100 150 245
42 3 21 100 150 245
42 3 22 100 150 245
42 3 190 100 150 245
42 3 191 100 150 245
42 3 192 100 150 245
42 4 20 100 150 245
42 4 190 100 150 245
42 4 191 100 150 245
42 4 192 100 150 245
42 5 21 100 150 245
42 5 190 100 150 245
42 5 191 100 150 245
42 5 192 100 150 245
42 6 21 100 150 245
42 6 190 100 150 245
42 6 191 100 150 245
42 6 192 100 150 245
42 6 193 100 150 245
42 6 194 100 150 245
42 6 205 100 150 245
42 6 206 100 150 245
42 7 189 100 150 245
42 7 190 100 150 245
42 7 191 100 150 245
42 7 192 100 150 245
42 7 193 100 150 245
42 7 194 100 150 245
42 7 195 100 150 245
42 7 205 100 150 245
42 7 206 100 150 245
42 8 21 100 150 245
42 8 193 100 150 245
42 8 194 100 150 245
42 8 195 100 150 245
42 8 206 100 150 245
42 8 207 100 150 245
42 9 22 100 150 245
42 9 193 100 150 245
42 9 194 100 150 245
42 9 195 100 150 245
42 9 206 100 150 245
42 10 19 100 150 245
42 10 21 100 150 245
42 10 194 100 150 245
42 10 195 100 150 245
42 10 206 100 150 245
42 11 20 100 150 245
42 11 193 100 150 245
42 11 194 100 150 245
42 11 195 100 150 245
42 11 199 100 150 245
42 11 206 100 150 245
42 12 20 100 150 245
42 12 194 100 150 245
42 12 195 100 150 245
42 12 196 100 150 245
42 12 198 100 150 245
42 12 199 100 150 245
42 12 206 100 150 245
42 13 19 100 150 245
42 13 20 100 150 245
42 13 196 100 150 245
42 13 206 100 150 245
42 14 19 100 150 245
42 14 20 100 150 245
42 14 206 100 150 245
42 15 19 100 150 245
42 15 20 100 150 245
43 0 57 100 150 245
43 0 60 100 150 245
43 0 64 100 150 245
43 0 65 100 150 245
43 0 66 100 150 245
43 0 68 100 150 245
43 0 69 100 150 245
43 0 73 100 150 245
43 0 74 100 150 245
43 0 75 100 150 245
43 0 83 100 150 245
43 0 84 100 150 245
43 0 85 100 150 245
43 0 90 100 150 245
43 0 113 100 150 245
43 0 114 100 150 245
43 0 115 100 150 245
43 0 116 100 150 245
43 0 117 100 150 245
43 0 121 100 150 245
43 0 122 100 150 245
43 0 123 100 150 245
43 0 124 100 150 245
43 1 19 100 150 245
43 1 90 100 150 245
43 1 91 100 150 245
43 1 95 100 150 245
43 1 96 100 150 245
43 1 99 100 150 245
43 1 100 100 150 245
43 1 103 100 150 245
43 1 104 100 150 245
43 1 105 100 150 245
43 1 110 100 150 245
43 1 111 100 150 245
43 1 124 100 150 245
43 1 125 100 150 245
43 1 126 100 150 245
43 1 127 100 150 245
43 1 128 100 150 245
43 1 129 100 150 245
43 1 130 100 150 245
43 1 131 100 150 245
43 1 132 100 150 245
43 1 133 100 150 245
43 1 134 100 150 245
43 1 135 100 150 245
43 1 137 100 150 245
43 1 138 100 150 245
43 1 139 100 150 245
43 1 140 100 150 245
43 1 147 100 150 245
43 1 148 100 150 245
43 1 149 100 150 245
43 1 151 100 150 245
43 1 152 100 150 245
43 1 154 100 150 245
43 1 155 100 150 245
43 1 157 100 150 245
43 1 158 100 150 245
43 1 162 100 150 245
43 1 163 100 150 245
43 1 170 100 150 245
43 1 171 100 150 245
43 1 175 100 150 245
43 1 176 100 150 245
43 1 177 100 150 245
43 1 178 100 150 245
43 1 179 100 150 245
43 1 181 100 150 245
43 1 183 100 150 245
43 2 20 100 150 245
43 2 183 100 150 245
43 2 185 100 150 245
43 2 187 100 150 245
43 2 188 100 150 245
43 2 189 100 150 245
43 2 190 100 150 245
43 3 19 100 150 245
43 3 20 100 150 245
43 3 189 100 150 245
43 3 190 100 150 245
43 4 19 100 150 245
43 4 189 100 150 245
43 4 190 100 150 245
43 5 20 100 150 245
43 5 44 100 150 245
43 5 136 100 150 245
43 5 189 100 150 245
43 5 190 100 150 245
43 6 19 100 150 245
43 6 189 100 150 245
43 6 190 100 150 245
43 6 206 100 150 245
43 7 20 100 150 245
43 7 189 100 150 245
43 7 190 100 150 245
43 7 192 100 150 245
43 7 194 100 150 245
43 7 206 100 150 245
43 7 207 100 150 245
43 8 19 100 150 245
43 8 192 100 150 245
43 8 193 100 150 245
43 8 194 100 150 245
43 8 206 100 150 245
43 8 207 100 150 245
43 9 20 100 150 245
43 9 192 100 150 245
43 9 193 100 150 245
43 9 207 100 150 245
43 10 19 100 150 245
43 10 20 100 150 245
43 10 193 100 150 245
43 10 194 100 150 245
43 10 207 100 150 245
43 11 193 100 150 245
43 11 194 100 150 245
43 11 206 100 150 245
43 12 19 100 150 245
43 12 20 100 150 245
43 12 194 100 150 245
43 12 195 100 150 245
43 12 206 100 150 245
43 12 207 100 150 245
43 13 19 100 150 245
43 13 194 100 150 245
43 13 195 100 150 245
43 13 196 100 150 245
43 13 197 100 150 245
43 13 198 100 150 245
43 13 199 100 150 245
43 13 207 100 150 245
43 14 20 100 150 245
43 14 207 100 150 245
43 15 20 100 150 245
44 0 17 100 150 245
44 0 56 100 150 245
44 0 59 100 150 245
44 0 66 100 150 245
44 0 67 100 150 245
44 0 69 100 150 245
44 0 70 100 150 245
44 0 71 100 150 245
44 0 75 100 150 245
44 0 76 100 150 245
44 0 77 100 150 245
44 0 85 100 150 245
44 0 86 100 150 245
44 0 106 100 150 245
44 0 112 100 150 245
44 0 113 100 150 245
44 0 114 100 150 245
44 0 117 100 150 245
44 0 118 100 150 245
44 0 119 100 150 245
44 0 120 100 150 245
44 0 121 100 150 245
44 0 122 100 150 245
44 0 123 100 150 245
44 1 17 100 150 245
44 1 91 100 150 245
44 1 92 100 150 245
44 1 96 100 150 245
44 1 97 100 150 245
44 1 100 100 150 245
44 1 101 100 150 245
44 1 105 100 150 245
44 1 111 100 150 245
44 1 112 100 150 245
44 1 113 100 150 245
44 1 114 100 150 245
44 1 123 100 150 245
44 1 124 100 150 245
44 1 125 100 150 245
44 1 126 100 150 245
44 1 132 100 150 245
44 1 133 100 150 245
44 1 134 100 150 245
44 1 135 100 150 245
44 1 136 100 150 245
44 1 137 100 150 245
44 1 144 100 150 245
44 1 145 100 150 245
44 1 146 100 150 245
44 1 147 100 150 245
44 1 150 100 150 245
44 1 151 100 150 245
44 1 153 100 150 245
44 1 154 100 150 245
44 1 157 100 150 245
44 1 161 100 150 245
44 1 162 100 150 245
44 1 169 100 150 245
44 1 170 100 150 245
44 1 173 100 150 245
44 1 174 100 150 245
44 1 175 100 150 245
44 1 178 100 150 245
44 1 179 100 150 245
44 1 181 100 150 245
44 1 182 100 150 245
44 1 183 100 150 245
44 2 18 100 150 245
44 2 19 100 150 245
44 2 185 100 150 245
44 2 187 100 150 245
44 2 189 100 150 245
44 2 190 100 150 245
44 3 18 100 150 245
44 3 189 100 150 245
44 3 190 100 150 245
44 4 17 100 150 245
44 4 50 100 150 245
44 4 189 100 150 245
44 4 190 100 150 245
44 5 18 100 150 245
44 5 44 100 150 245
44 5 45 100 150 245
44 5 137 100 150 245
44 5 189 100 150 245
44 5 190 100 150 245
44 6 18 100 150 245
44 6 43 100 150 245
44 6 44 100 150 245
44 6 189 100 150 245
44 6 190 100 150 245
44 6 207 100 150 245
44 7 17 100 150 245
44 7 18 100 150 245
44 7 189 100 150 245
44 7 190 100 150 245
44 7 207 100 150 245
44 7 208 100 150 245
44 8 17 100 150 245
44 8 189 100 150 245
44 8 192 100 150 245
44 8 193 100 150 245
44 8 207 100 150 245
44 8 208 100 150 245
44 9 18 100 150 245
44 9 189 100 150 245
44 9 192 100 150 245
44 9 193 100 150 245
44 9 207 100 150 245
44 10 17 100 150 245
44 10 189 100 150 245
44 10 192 100 150 245
44 10 193 100 150 245
44 10 207 100 150 245
44 10 208 100 150 245
44 11 17 100 150 245
44 11 18 100 150 245
44 11 188 100 150 245
44 11 189 100 150 245
44 11 192 100 150 245
44 11 193 100 150 245
44 11 206 100 150 245
44 11 207 100 150 245
44 12 17 100 150 245
44 12 18 100 150 245
44 12 189 100 150 245
44 12 193 100 150 245
44 12 194 100 150 245
44 12 207 100 150 245
44 13 17 100 150 245
44 13 189 100 150 245
44 13 194 100 150 245
44 13 195 100 150 245
44 13 196 100 150 245
44 13 198 100 150 245
44 13 207 100 150 245
44 14 17 100 150 245
44 14 207 100 150 245
44 15 18 100 150 245
45 0 55 100 150 245
45 0 56 100 150 245
45 0 60 100 150 245
45 0 61 100 150 245
45 0 67 100 150 245
45 0 68 100 150 245
45 0 71 100 150 245
45 0 72 100 150 245
45 0 73 100 150 245
45 0 77 100 150 245
45 0 78 100 150 245
45 0 87 100 150 245
45 0 93 100 150 245
45 0 101 100 150 245
45 0 102 100 150 245
45 0 106 100 150 245
45 0 107 100 150 245
45 0 114 100 150 245
45 0 115 100 150 245
45 0 116 100 150 245
45 0 117 100 150 245
45 0 120 100 150 245
45 0 121 100 150 245
45 1 16 100 150 245
45 1 87 100 150 245
45 1 88 100 150 245
45 1 93 100 150 245
45 1 97 100 150 245
45 1 98 100 150 245
45 1 99 100 150 245
45 1 101 100 150 245
45 1 115 100 150 245
45 1 119 100 150 245
45 1 120 100 150 245
45 1 121 100 150 245
45 1 127 100 150 245
45 1 128 100 150 245
45 1 129 100 150 245
45 1 130 100 150 245
45 1 131 100 150 245
45 1 132 100 150 245
45 1 140 100 150 245
45 1 141 100 150 245
45 1 142 100 150 245
45 1 143 100 150 245
45 1 144 100 150 245
45 1 147 100 150 245
45 1 148 100 150 245
45 1 149 100 150 245
45 1 150 100 150 245
45 1 152 100 150 245
45 1 153 100 150 245
45 1 155 100 150 245
45 1 156 100 150 245
45 1 160 100 150 245
45 1 161 100 150 245
45 1 167 100 150 245
45 1 168 100 150 245
45 1 172 100 150 245
45 1 173 100 150 245
45 1 176 100 150 245
45 1 177 100 150 245
45 1 178 100 150 245
45 1 181 100 150 245
45 1 182 100 150 245
45 2 16 100 150 245
45 2 17 100 150 245
45 2 50 100 150 245
45 2 51 100 150 245
45 2 185 100 150 245
45 2 187 100 150 245
45 2 190 100 150 245
45 3 16 100 150 245
45 3 50 100 150 245
45 3 124 100 150 245
45 3 125 100 150 245
45 3 190 100 150 245
45 3 191 100 150 245
45 4 50 100 150 245
45 4 125 100 150 245
45 4 136 100 150 245
45 4 137 100 150 245
45 4 189 100 150 245
45 5 16 100 150 245
45 5 45 100 150 245
45 5 46 100 150 245
45 5 124 100 150 245
45 5 136 100 150 245
45 5 137 100 150 245
45 5 138 100 150 245
45 5 190 100 150 245
45 6 16 100 150 245
45 6 44 100 150 245
45 6 136 100 150 245
45 6 137 100 150 245
45 6 138 100 150 245
45 6 190 100 150 245
45 6 207 100 150 245
45 6 208 100 150 245
45 7 16 100 150 245
45 7 17 100 150 245
45 7 190 100 150 245
45 7 192 100 150 245
45 7 193 100 150 245
45 7 208 100 150 245
45 8 16 100 150 245
45 8 192 100 150 245
45 8 193 100 150 245
45 8 208 100 150 245
45 9 16 100 150 245
45 9 192 100 150 245
45 9 193 100 150 245
45 9 208 100 150 245
45 10 15 100 150 245
45 10 16 100 150 245
45 10 190 100 150 245
45 10 192 100 150 245
45 10 193 100 150 245
45 10 208 100 150 245
45 11 192 100 150 245
45 11 193 100 150 245
45 11 207 100 150 245
45 11 208 100 150 245
45 12 15 100 150 245
45 12 16 100 150 245
45 12 193 100 150 245
45 12 194 100 150 245
45 13 194 100 150 245
45 13 195 100 150 245
45 13 209 100 150 245
45 14 15 100 150 245
45 14 209 100 150 245
45 15 16 100 150 245
46 0 55 100 150 245
46 0 61 100 150 245
46 0 62 100 150 245
46 0 68 100 150 245
46 0 69 100 150 245
46 0 70 100 150 245
46 0 73 100 150 245
46 0 74 100 150 245
46 0 78 100 150 245
46 0 79 100 150 245
46 0 80 100 150 245
46 0 88 100 150 245
46 0 89 100 150 245
46 0 94 100 150 245
46 0 95 100 150 245
46 0 100 100 150 245
46 0 103 100 150 245
46 0 104 100 150 245
46 0 107 100 150 245
46 0 108 100 150 245
46 0 109 100 150 245
46 0 110 100 150 245
46 0 117 100 150 245
46 0 118 100 150 245
46 0 119 100 150 245
46 1 51 100 150 245
46 1 88 100 150 245
46 1 89 100 150 245
46 1 94 100 150 245
46 1 95 100 150 245
46 1 99 100 150 245
46 1 120 100 150 245
46 1 121 100 150 245
46 1 122 100 150 245
46 1 123 100 150 245
46 1 124 100 150 245
46 1 125 100 150 245
46 1 126 100 150 245
46 1 127 100 150 245
46 1 135 100 150 245
46 1 136 100 150 245
46 1 137 100 150 245
46 1 138 100 150 245
46 1 139 100 150 245
46 1 140 100 150 245
46 1 144 100 150 245
46 1 145 100 150 245
46 1 146 100 150 245
46 1 147 100 150 245
46 1 150 100 150 245
46 1 151 100 150 245
46 1 152 100 150 245
46 1 155 100 150 245
46 1 159 100 150 245
46 1 160 100 150 245
46 1 166 100 150 245
46 1 167 100 150 245
46 1 171 100 150 245
46 1 172 100 150 245
46 1 174 100 150 245
46 1 175 100 150 245
46 1 176 100 150 245
46 1 180 100 150 245
46 1 181 100 150 245
46 1 182 100 150 245
46 1 184 100 150 245
46 2 14 100 150 245
46 2 15 100 150 245
46 2 51 100 150 245
46 2 122 100 150 245
46 2 123 100 150 245
46 2 124 100 150 245
46 2 125 100 150 245
46 2 136 100 150 245
46 2 184 100 150 245
46 2 187 100 150 245
46 2 190 100 150 245
46 2 191 100 150 245
46 3 50 100 150 245
46 3 51 100 150 245
46 3 122 100 150 245
46 3 123 100 150 245
46 3 124 100 150 245
46 3 125 100 150 245
46 3 126 100 150 245
46 3 136 100 150 245
46 3 137 100 150 245
46 3 138 100 150 245
46 3 191 100 150 245
46 4 14 100 150 245
46 4 15 100 150 245
46 4 50 100 150 245
46 4 123 100 150 245
46 4 124 100 150 245
46 4 125 100 150 245
46 4 136 100 150 245
46 4 137 100 150 245
46 4 138 100 150 245
46 4 190 100 150 245
46 4 191 100 150 245
46 5 14 100 150 245
46 5 46 100 150 245
46 5 47 100 150 245
46 5 122 100 150 245
46 5 123 100 150 245
46 5 124 100 150 245
46 5 125 100 150 245
46 5 136 100 150 245
46 5 137 100 150 245
46 5 138 100 150 245
46 5 190 100 150 245
46 5 191 100 150 245
46 6 14 100 150 245
46 6 45 100 150 245
46 6 123 100 150 245
46 6 124 100 150 245
46 6 125 100 150 245
46 6 137 100 150 245
46 6 138 100 150 245
46 6 191 100 150 245
46 6 208 100 150 245
46 7 15 100 150 245
46 7 192 100 150 245
46 7 193 100 150 245
46 7 208 100 150 245
46 8 14 100 150 245
46 8 192 100 150 245
46 8 193 100 150 245
46 8 208 100 150 245
46 9 15 100 150 245
46 9 192 100 150 245
46 9 209 100 150 245
46 10 14 100 150 245
46 10 192 100 150 245
46 10 193 100 150 245
46 10 208 100 150 245
46 10 209 100 150 245
46 11 15 100 150 245
46 11 192 100 150 245
46 11 193 100 150 245
46 11 208 100 150 245
46 12 14 100 150 245
46 12 193 100 150 245
46 12 194 100 150 245
46 12 209 100 150 245
46 12 210 100 150 245
46 13 15 100 150 245
46 13 194 100 150 245
46 13 195 100 150 245
46 13 196 100 150 245
46 13 209 100 150 245
46 13 210 100 150 245
46 14 14 100 150 245
46 14 209 100 150 245
46 14 210 100 150 245
46 15 14 100 150 245
47 0 49 100 150 245
47 0 56 100 150 245
47 0 57 100 150 245
47 0 62 100 150 245
47 0 63 100 150 245
47 0 70 100 150 245
47 0 71 100 150 245
47 0 74 100 150 245
47 0 75 100 150 245
47 0 76 100 150 245
47 0 80 100 150 245
47 0 81 100 150 245
47 0 89 100 150 245
47 0 90 100 150 245
47 0 95 100 150 245
47 0 96 100 150 245
47 0 100 100 150 245
47 0 101 100 150 245
47 0 104 100 150 245
47 0 105 100 150 245
47 0 110 100 150 245
47 0 111 100 150 245
47 0 112 100 150 245
47 1 13 100 150 245
47 1 14 100 150 245
47 1 50 100 150 245
47 1 89 100 150 245
47 1 125 100 150 245
47 1 126 100 150 245
47 1 129 100 150 245
47 1 130 100 150 245
47 1 131 100 150 245
47 1 132 100 150 245
47 1 133 100 150 245
47 1 134 100 150 245
47 1 135 100 150 245
47 1 136 100 150 245
47 1 137 100 150 245
47 1 139 100 150 245
47 1 140 100 150 245
47 1 141 100 150 245
47 1 142 100 150 245
47 1 143 100 150 245
47 1 144 100 150 245
47 1 147 100 150 245
47 1 148 100 150 245
47 1 149 100 150 245
47 1 152 100 150 245
47 1 154 100 150 245
47 1 155 100 150 245
47 1 158 100 150 245
47 1 159 100 150 245
47 1 165 100 150 245
47 1 166 100 150 245
47 1 169 100 150 245
47 1 170 100 150 245
47 1 173 100 150 245
47 1 174 100 150 245
47 1 180 100 150 245
47 1 182 100 150 245
47 1 184 100 150 245
47 2 13 100 150 245
47 2 50 100 150 245
47 2 121 100 150 245
47 2 122 100 150 245
47 2 123 100 150 245
47 2 125 100 150 245
47 2 126 100 150 245
47 2 136 100 150 245
47 2 137 100 150 245
47 2 138 100 150 245
47 2 187 100 150 245
47 2 190 100 150 245
47 2 191 100 150 245
47 2 192 100 150 245
47 3 14 100 150 245
47 3 50 100 150 245
47 3 121 100 150 245
47 3 122 100 150 245
47 3 126 100 150 245
47 3 137 100 150 245
47 3 138 100 150 245
47 3 139 100 150 245
47 3 191 100 150 245
47 3 192 100 150 245
47 4 13 100 150 245
47 4 50 100 150 245
47 4 121 100 150 245
47 4 122 100 150 245
47 4 123 100 150 245
47 4 125 100 150 245
47 4 126 100 150 245
47 4 138 100 150 245
47 4 139 100 150 245
47 4 191 100 150 245
47 4 192 100 150 245
47 5 13 100 150 245
47 5 46 100 150 245
47 5 47 100 150 245
47 5 121 100 150 245
47 5 122 100 150 245
47 5 137 100 150 245
47 5 138 100 150 245
47 5 139 100 150 245
47 5 191 100 150 245
47 5 192 100 150 245
47 6 12 100 150 245
47 6 45 100 150 245
47 6 121 100 150 245
47 6 122 100 150 245
47 6 123 100 150 245
47 6 124 100 150 245
47 6 125 100 150 245
47 6 191 100 150 245
47 6 192 100 150 245
47 7 13 100 150 245
47 7 14 100 150 245
47 7 193 100 150 245
47 8 12 100 150 245
47 8 193 100 150 245
47 9 13 100 150 245
47 9 193 100 150 245
47 10 13 100 150 245
47 10 193 100 150 245
47 11 13 100 150 245
47 11 193 100 150 245
47 11 194 100 150 245
47 12 12 100 150 245
47 12 13 100 150 245
47 12 194 100 150 245
47 12 210 100 150 245
47 13 13 100 150 245
47 13 195 100 150 245
47 13 196 100 150 245
47 13 210 100 150 245
47 14 12 100 150 245
47 14 210 100 150 245
47 15 12 100 150 245
48 0 49 100 150 245
48 0 52 100 150 245
48 0 57 100 150 245
48 0 58 100 150 245
48 0 64 100 150 245
48 0 65 100 150 245
48 0 72 100 150 245
48 0 73 100 150 245
48 0 76 100 150 245
48 0 77 100 150 245
48 0 82 100 150 245
48 0 83 100 150 245
48 0 90 100 150 245
48 0 91 100 150 245
48 0 96 100 150 245
48 0 97 100 150 245
48 0 101 100 150 245
48 0 102 100 150 245
48 0 105 100 150 245
48 0 106 100 150 245
48 0 107 100 150 245
48 0 112 100 150 245
48 0 113 100 150 245
48 0 114 100 150 245
48 0 115 100 150 245
48 0 116 100 150 245
48 0 117 100 150 245
48 0 118 100 150 245
48 0 119 100 150 245
48 1 13 100 150 245
48 1 118 100 150 245
48 1 119 100 150 245
48 1 120 100 150 245
48 1 121 100 150 245
48 1 125 100 150 245
48 1 126 100 150 245
48 1 127 100 150 245
48 1 128 100 150 245
48 1 129 100 150 245
48 1 130 100 150 245
48 1 133 100 150 245
48 1 134 100 150 245
48 1 135 100 150 245
48 1 136 100 150 245
48 1 137 100 150 245
48 1 138 100 150 245
48 1 139 100 150 245
48 1 142 100 150 245
48 1 143 100 150 245
48 1 144 100 150 245
48 1 145 100 150 245
48 1 146 100 150 245
48 1 147 100 150 245
48 1 151 100 150 245
48 1 152 100 150 245
48 1 153 100 150 245
48 1 154 100 150 245
48 1 157 100 150 245
48 1 158 100 150 245
48 1 164 100 150 245
48 1 165 100 150 245
48 1 167 100 150 245
48 1 168 100 150 245
48 1 169 100 150 245
48 1 171 100 150 245
48 1 172 100 150 245
48 1 178 100 150 245
48 1 179 100 150 245
48 1 180 100 150 245
48 1 181 100 150 245
48 1 183 100 150 245
48 1 184 100 150 245
48 2 13 100 150 245
48 2 50 100 150 245
48 2 120 100 150 245
48 2 121 100 150 245
48 2 126 100 150 245
48 2 127 100 150 245
48 2 137 100 150 245
48 2 138 100 150 245
48 2 139 100 150 245
48 2 186 100 150 245
48 2 187 100 150 245
48 2 189 100 150 245
48 2 190 100 150 245
48 2 192 100 150 245
48 2 193 100 150 245
48 3 13 100 150 245
48 3 49 100 150 245
48 3 120 100 150 245
48 3 121 100 150 245
48 3 126 100 150 245
48 3 127 100 150 245
48 3 137 100 150 245
48 3 138 100 150 245
48 3 139 100 150 245
48 3 192 100 150 245
48 4 12 100 150 245
48 4 13 100 150 245
48 4 48 100 150 245
48 4 49 100 150 245
48 4 120 100 150 245
48 4 121 100 150 245
48 4 122 100 150 245
48 4 126 100 150 245
48 4 127 100 150 245
48 4 138 100 150 245
48 4 139 100 150 245
48 4 192 100 150 245
48 5 12 100 150 245
48 5 46 100 150 245
48 5 47 100 150 245
48 5 120 100 150 245
48 5 121 100 150 245
48 5 127 100 150 245
48 5 139 100 150 245
48 5 140 100 150 245
48 5 192 100 150 245
48 6 13 100 150 245
48 6 45 100 150 245
48 6 120 100 150 245
48 6 121 100 150 245
48 6 123 100 150 245
48 6 124 100 150 245
48 6 126 100 150 245
48 6 192 100 150 245
48 6 193 100 150 245
48 6 194 100 150 245
48 7 12 100 150 245
48 7 13 100 150 245
48 7 125 100 150 245
48 7 193 100 150 245
48 7 194 100 150 245
48 8 13 100 150 245
48 8 193 100 150 245
48 9 13 100 150 245
48 9 193 100 150 245
48 10 12 100 150 245
48 10 13 100 150 245
48 10 193 100 150 245
48 11 13 100 150 245
48 11 193 100 150 245
48 11 194 100 150 245
48 12 12 100 150 245
48 12 13 100 150 245
48 12 194 100 150 245
48 12 195 100 150 245
48 12 210 100 150 245
48 12 211 100 150 245
48 13 12 100 150 245
48 13 13 100 150 245
48 13 196 100 150 245
48 13 210 100 150 245
48 13 211 100 150 245
48 14 13 100 150 245
48 14 211 100 150 245
48 15 13 100 150 245
49 0 52 100 150 245
49 0 53 100 150 245
49 0 58 100 150 245
49 0 59 100 150 245
49 0 65 100 150 245
49 0 66 100 150 245
49 0 67 100 150 245
49 0 73 100 150 245
49 0 74 100 150 245
49 0 75 100 150 245
49 0 77 100 150 245
49 0 78 100 150 245
49 0 79 100 150 245
49 0 83 100 150 245
49 0 84 100 150 245
49 0 91 100 150 245
49 0 92 100 150 245
49 0 97 100 150 245
49 0 98 100 150 245
49 0 102 100 150 245
49 0 103 100 150 245
49 0 104 100 150 245
49 0 108 100 150 245
49 0 109 100 150 245
49 0 110 100 150 245
49 0 114 100 150 245
49 0 119 100 150 245
49 1 120 100 150 245
49 1 121 100 150 245
49 1 122 100 150 245
49 1 123 100 150 245
49 1 124 100 150 245
49 1 125 100 150 245
49 1 127 100 150 245
49 1 130 100 150 245
49 1 131 100 150 245
49 1 132 100 150 245
49 1 133 100 150 245
49 1 134 100 150 245
49 1 135 100 150 245
49 1 138 100 150 245
49 1 139 100 150 245
49 1 140 100 150 245
49 1 141 100 150 245
49 1 142 100 150 245
49 1 148 100 150 245
49 1 149 100 150 245
49 1 150 100 150 245
49 1 151 100 150 245
49 1 153 100 150 245
49 1 156 100 150 245
49 1 157 100 150 245
49 1 162 100 150 245
49 1 163 100 150 245
49 1 166 100 150 245
49 1 167 100 150 245
49 1 169 100 150 245
49 1 170 100 150 245
49 1 171 100 150 245
49 1 176 100 150 245
49 1 177 100 150 245
49 1 178 100 150 245
49 1 181 100 150 245
49 1 183 100 150 245
49 2 119 100 150 245
49 2 120 100 150 245
49 2 127 100 150 245
49 2 128 100 150 245
49 2 138 100 150 245
49 2 186 100 150 245
49 2 189 100 150 245
49 2 193 100 150 245
49 3 119 100 150 245
49 3 120 100 150 245
49 3 127 100 150 245
49 3 128 100 150 245
49 3 140 100 150 245
49 3 141 100 150 245
49 3 193 100 150 245
49 4 47 100 150 245
49 4 119 100 150 245
49 4 120 100 150 245
49 4 139 100 150 245
49 4 140 100 150 245
49 4 141 100 150 245
49 4 192 100 150 245
49 4 193 100 150 245
49 5 46 100 150 245
49 5 119 100 150 245
49 5 127 100 150 245
49 5 139 100 150 245
49 5 140 100 150 245
49 5 141 100 150 245
49 5 192 100 150 245
49 5 193 100 150 245
49 6 121 100 150 245
49 6 122 100 150 245
49 6 123 100 150 245
49 6 139 100 150 245
49 6 140 100 150 245
49 6 141 100 150 245
49 6 192 100 150 245
49 6 194 100 150 245
49 6 195 100 150 245
49 7 123 100 150 245
49 7 124 100 150 245
49 7 125 100 150 245
49 7 126 100 150 245
49 7 194 100 150 245
49 8 193 100 150 245
49 8 194 100 150 245
49 9 193 100 150 245
49 9 194 100 150 245
49 10 194 100 150 245
49 11 194 100 150 245
49 13 210 100 150 245
49 13 211 100 150 245
49 14 211 100 150 245
50 0 54 100 150 245
50 0 59 100 150 245
50 0 60 100 150 245
50 0 67 100 150 245
50 0 68 100 150 245
50 0 69 100 150 245
50 0 75 100 150 245
50 0 76 100 150 245
50 0 79 100 150 245
50 0 80 100 150 245
50 0 84 100 150 245
50 0 85 100 150 245
50 0 92 100 150 245
50 0 93 100 150 245
50 0 98 100 150 245
50 0 99 100 150 245
50 0 104 100 150 245
50 0 105 100 150 245
50 0 106 100 150 245
50 0 110 100 150 245
50 0 111 100 150 245
50 0 112 100 150 245
50 0 113 100 150 245
50 0 114 100 150 245
50 0 115 100 150 245
50 0 116 100 150 245
50 1 117 100 150 245
50 1 127 100 150 245
50 1 128 100 150 245
50 1 129 100 150 245
50 1 130 100 150 245
50 1 131 100 150 245
50 1 132 100 150 245
50 1 133 100 150 245
50 1 134 100 150 245
50 1 135 100 150 245
50 1 136 100 150 245
50 1 140 100 150 245
50 1 142 100 150 245
50 1 143 100 150 245
50 1 144 100 150 245
50 1 145 100 150 245
50 1 146 100 150 245
50 1 147 100 150 245
50 1 148 100 150 245
50 1 155 100 150 245
50 1 156 100 150 245
50 1 161 100 150 245
50 1 162 100 150 245
50 1 165 100 150 245
50 1 166 100 150 245
50 1 168 100 150 245
50 1 169 100 150 245
50 1 175 100 150 245
50 1 176 100 150 245
50 1 181 100 150 245
50 1 182 100 150 245
50 1 183 100 150 245
50 1 186 100 150 245
50 2 119 100 150 245
50 2 128 100 150 245
50 2 189 100 150 245
50 2 193 100 150 245
50 3 127 100 150 245
50 3 128 100 150 245
50 3 129 100 150 245
50 3 140 100 150 245
50 3 141 100 150 245
50 3 193 100 150 245
50 4 119 100 150 245
50 4 139 100 150 245
50 4 140 100 150 245
50 4 141 100 150 245
50 4 193 100 150 245
50 5 44 100 150 245
50 5 119 100 150 245
50 5 140 100 150 245
50 5 141 100 150 245
50 5 193 100 150 245
50 6 44 100 150 245
50 6 120 100 150 245
50 6 121 100 150 245
50 6 128 100 150 245
50 6 139 100 150 245
50 6 140 100 150 245
50 6 141 100 150 245
50 6 193 100 150 245
50 6 195 100 150 245
50 7 122 100 150 245
50 7 123 100 150 245
50 7 124 100 150 245
50 7 125 100 150 245
50 7 126 100 150 245
50 7 127 100 150 245
50 7 194 100 150 245
50 7 195 100 150 245
50 8 194 100 150 245
50 9 194 100 150 245
50 9 195 100 150 245
50 10 194 100 150 245
50 10 195 100 150 245
50 11 195 100 150 245
50 13 211 100 150 245
50 14 211 100 150 245
51 0 55 100 150 245
51 0 56 100 150 245
51 0 61 100 150 245
51 0 62 100 150 245
51 0 69 100 150 245
51 0 70 100 150 245
51 0 76 100 150 245
51 0 77 100 150 245
51 0 80 100 150 245
51 0 81 100 150 245
51 0 85 100 150 245
51 0 86 100 150 245
51 0 93 100 150 245
51 0 94 100 150 245
51 0 99 100 150 245
51 0 100 100 150 245
51 0 101 100 150 245
51 0 106 100 150 245
51 0 107 100 150 245
51 0 108 100 150 245
51 0 116 100 150 245
51 0 117 100 150 245
51 1 117 100 150 245
51 1 118 100 150 245
51 1 119 100 150 245
51 1 120 100 150 245
51 1 121 100 150 245
51 1 122 100 150 245
51 1 123 100 150 245
51 1 124 100 150 245
51 1 125 100 150 245
51 1 127 100 150 245
51 1 128 100 150 245
51 1 131 100 150 245
51 1 136 100 150 245
51 1 137 100 150 245
51 1 138 100 150 245
51 1 139 100 150 245
51 1 140 100 150 245
51 1 141 100 150 245
51 1 142 100 150 245
51 1 143 100 150 245
51 1 151 100 150 245
51 1 152 100 150 245
51 1 153 100 150 245
51 1 154 100 150 245
51 1 155 100 150 245
51 1 160 100 150 245
51 1 161 100 150 245
51 1 164 100 150 245
51 1 165 100 150 245
51 1 167 100 150 245
51 1 168 100 150 245
51 1 173 100 150 245
51 1 174 100 150 245
51 1 180 100 150 245
51 1 181 100 150 245
51 1 183 100 150 245
51 1 185 100 150 245
51 1 186 100 150 245
51 2 113 100 150 245
51 2 127 100 150 245
51 2 128 100 150 245
51 2 129 100 150 245
51 2 140 100 150 245
51 2 189 100 150 245
51 2 192 100 150 245
51 2 193 100 150 245
51 2 194 100 150 245
51 3 113 100 150 245
51 3 119 100 150 245
51 3 140 100 150 245
51 3 141 100 150 245
51 3 194 100 150 245
51 4 42 100 150 245
51 4 113 100 150 245
51 4 194 100 150 245
51 5 128 100 150 245
51 5 129 100 150 245
51 5 142 100 150 245
51 5 193 100 150 245
51 5 194 100 150 245
51 6 128 100 150 245
51 6 139 100 150 245
51 6 140 100 150 245
51 6 141 100 150 245
51 6 194 100 150 245
51 7 121 100 150 245
51 7 122 100 150 245
51 7 123 100 150 245
51 7 127 100 150 245
51 7 128 100 150 245
51 7 140 100 150 245
51 7 141 100 150 245
51 7 142 100 150 245
51 7 195 100 150 245
51 8 124 100 150 245
51 8 125 100 150 245
51 8 126 100 150 245
51 8 127 100 150 245
51 8 140 100 150 245
51 10 195 100 150 245
51 14 212 100 150 245
52 0 49 100 150 245
52 0 50 100 150 245
52 0 56 100 150 245
52 0 57 100 150 245
52 0 63 100 150 245
52 0 64 100 150 245
52 0 70 100 150 245
52 0 71 100 150 245
52 0 72 100 150 245
52 0 78 100 150 245
52 0 79 100 150 245
52 0 81 100 150 245
52 0 82 100 150 245
52 0 86 100 150 245
52 0 87 100 150 245
52 0 95 100 150 245
52 0 101 100 150 245
52 0 102 100 150 245
52 0 103 100 150 245
52 0 108 100 150 245
52 0 109 100 150 245
52 0 110 100 150 245
52 0 111 100 150 245
52 0 112 100 150 245
52 0 113 100 150 245
52 0 114 100 150 245
52 0 115 100 150 245
52 1 112 100 150 245
52 1 113 100 150 245
52 1 115 100 150 245
52 1 116 100 150 245
52 1 117 100 150 245
52 1 120 100 150 245
52 1 121 100 150 245
52 1 122 100 150 245
52 1 123 100 150 245
52 1 124 100 150 245
52 1 125 100 150 245
52 1 127 100 150 245
52 1 128 100 150 245
52 1 129 100 150 245
52 1 130 100 150 245
52 1 132 100 150 245
52 1 133 100 150 245
52 1 134 100 150 245
52 1 135 100 150 245
52 1 136 100 150 245
52 1 146 100 150 245
52 1 147 100 150 245
52 1 148 100 150 245
52 1 149 100 150 245
52 1 150 100 150 245
52 1 151 100 150 245
52 1 159 100 150 245
52 1 160 100 150 245
52 1 163 100 150 245
52 1 164 100 150 245
52 1 166 100 150 245
52 1 167 100 150 245
52 1 171 100 150 245
52 1 172 100 150 245
52 1 173 100 150 245
52 1 178 100 150 245
52 1 179 100 150 245
52 1 183 100 150 245
52 1 185 100 150 245
52 2 111 100 150 245
52 2 112 100 150 245
52 2 113 100 150 245
52 2 114 100 150 245
52 2 115 100 150 245
52 2 116 100 150 245
52 2 129 100 150 245
52 2 139 100 150 245
52 2 140 100 150 245
52 2 189 100 150 245
52 2 192 100 150 245
52 2 195 100 150 245
52 3 112 100 150 245
52 3 113 100 150 245
52 3 114 100 150 245
52 3 115 100 150 245
52 3 116 100 150 245
52 3 129 100 150 245
52 3 130 100 150 245
52 3 141 100 150 245
52 3 194 100 150 245
52 3 195 100 150 245
52 4 42 100 150 245
52 4 112 100 150 245
52 4 113 100 150 245
52 4 114 100 150 245
52 4 115 100 150 245
52 4 116 100 150 245
52 4 141 100 150 245
52 4 194 100 150 245
52 4 195 100 150 245
52 5 128 100 150 245
52 5 129 100 150 245
52 5 130 100 150 245
52 5 194 100 150 245
52 6 126 100 150 245
52 6 127 100 150 245
52 6 142 100 150 245
52 6 194 100 150 245
52 7 121 100 150 245
52 7 122 100 150 245
52 7 128 100 150 245
52 7 140 100 150 245
52 7 141 100 150 245
52 7 142 100 150 245
52 7 196 100 150 245
52 8 123 100 150 245
52 8 127 100 150 245
52 8 128 100 150 245
52 8 140 100 150 245
52 9 140 100 150 245
52 14 212 100 150 245
53 0 50 100 150 245
53 0 51 100 150 245
53 0 57 100 150 245
53 0 58 100 150 245
53 0 59 100 150 245
53 0 64 100 150 245
53 0 65 100 150 245
53 0 66 100 150 245
53 0 72 100 150 245
53 0 73 100 150 245
53 0 79 100 150 245
53 0 82 100 150 245
53 0 83 100 150 245
53 0 87 100 150 245
53 0 88 100 150 245
53 0 96 100 150 245
53 0 97 100 150 245
53 0 103 100 150 245
53 0 104 100 150 245
53 1 111 100 150 245
53 1 112 100 150 245
53 1 116 100 150 245
53 1 117 100 150 245
53 1 118 100 150 245
53 1 119 100 150 245
53 1 120 100 150 245
53 1 121 100 150 245
53 1 123 100 150 245
53 1 132 100 150 245
53 1 139 100 150 245
53 1 140 100 150 245
53 1 141 100 150 245
53 1 142 100 150 245
53 1 143 100 150 245
53 1 144 100 150 245
53 1 145 100 150 245
53 1 146 100 150 245
53 1 158 100 150 245
53 1 159 100 150 245
53 1 162 100 150 245
53 1 163 100 150 245
53 1 165 100 150 245
53 1 166 100 150 245
53 1 170 100 150 245
53 1 171 100 150 245
53 1 176 100 150 245
53 1 177 100 150 245
53 1 178 100 150 245
53 1 183 100 150 245
53 1 184 100 150 245
53 1 185 100 150 245
53 2 110 100 150 245
53 2 111 100 150 245
53 2 112 100 150 245
53 2 116 100 150 245
53 2 130 100 150 245
53 2 141 100 150 245
53 2 142 100 150 245
53 2 189 100 150 245
53 2 192 100 150 245
53 2 195 100 150 245
53 3 110 100 150 245
53 3 111 100 150 245
53 3 112 100 150 245
53 3 113 100 150 245
53 3 116 100 150 245
53 3 130 100 150 245
53 3 142 100 150 245
53 3 195 100 150 245
53 4 111 100 150 245
53 4 112 100 150 245
53 4 113 100 150 245
53 4 114 100 150 245
53 4 115 100 150 245
53 4 116 100 150 245
53 4 142 100 150 245
53 4 195 100 150 245
53 5 195 100 150 245
53 6 124 100 150 245
53 6 195 100 150 245
53 7 122 100 150 245
53 7 124 100 150 245
54 0 51 100 150 245
54 0 52 100 150 245
54 0 59 100 150 245
54 0 60 100 150 245
54 0 66 100 150 245
54 0 67 100 150 245
54 0 73 100 150 245
54 0 74 100 150 245
54 0 79 100 150 245
54 0 80 100 150 245
54 0 83 100 150 245
54 0 84 100 150 245
54 0 88 100 150 245
54 0 89 100 150 245
54 0 97 100 150 245
54 0 98 100 150 245
54 0 104 100 150 245
54 0 105 100 150 245
54 0 106 100 150 245
54 0 107 100 150 245
54 0 108 100 150 245
54 0 109 100 150 245
54 0 110 100 150 245
54 1 110 100 150 245
54 1 116 100 150 245
54 1 117 100 150 245
54 1 130 100 150 245
54 1 131 100 150 245
54 1 132 100 150 245
54 1 134 100 150 245
54 1 135 100 150 245
54 1 136 100 150 245
54 1 137 100 150 245
54 1 157 100 150 245
54 1 158 100 150 245
54 1 161 100 150 245
54 1 162 100 150 245
54 1 164 100 150 245
54 1 169 100 150 245
54 1 170 100 150 245
54 1 175 100 150 245
54 1 176 100 150 245
54 1 181 100 150 245
54 1 182 100 150 245
54 1 183 100 150 245
54 1 184 100 150 245
54 1 185 100 150 245
54 1 188 100 150 245
54 1 189 100 150 245
54 2 109 100 150 245
54 2 110 100 150 245
54 2 111 100 150 245
54 2 116 100 150 245
54 2 117 100 150 245
54 2 118 100 150 245
54 2 131 100 150 245
54 2 141 100 150 245
54 2 142 100 150 245
54 2 192 100 150 245
54 2 196 100 150 245
54 3 109 100 150 245
54 3 110 100 150 245
54 3 111 100 150 245
54 3 117 100 150 245
54 3 131 100 150 245
54 3 142 100 150 245
54 3 143 100 150 245
54 3 196 100 150 245
54 4 110 100 150 245
54 4 111 100 150 245
54 4 112 100 150 245
54 4 116 100 150 245
54 4 117 100 150 245
54 4 131 100 150 245
54 4 196 100 150 245
54 5 24 100 150 245
54 5 112 100 150 245
54 5 113 100 150 245
54 5 114 100 150 245
54 5 115 100 150 245
54 5 116 100 150 245
54 5 117 100 150 245
54 5 196 100 150 245
54 6 124 100 150 245
54 6 195 100 150 245
54 6 196 100 150 245
54 7 130 100 150 245
55 0 45 100 150 245
55 0 46 100 150 245
55 0 52 100 150 245
55 0 53 100 150 245
55 0 54 100 150 245
55 0 61 100 150 245
55 0 62 100 150 245
55 0 68 100 150 245
55 0 69 100 150 245
55 0 75 100 150 245
55 0 81 100 150 245
55 0 84 100 150 245
55 0 85 100 150 245
55 0 89 100 150 245
55 0 90 100 150 245
55 0 99 100 150 245
55 0 100 100 150 245
55 0 110 100 150 245
55 0 111 100 150 245
55 0 112 100 150 245
55 0 113 100 150 245
55 0 114 100 150 245
55 0 115 100 150 245
55 1 114 100 150 245
55 1 115 100 150 245
55 1 116 100 150 245
55 1 117 100 150 245
55 1 118 100 150 245
55 1 119 100 150 245
55 1 128 100 150 245
55 1 129 100 150 245
55 1 130 100 150 245
55 1 133 100 150 245
55 1 134 100 150 245
55 1 151 100 150 245
55 1 152 100 150 245
55 1 153 100 150 245
55 1 156 100 150 245
55 1 157 100 150 245
55 1 160 100 150 245
55 1 161 100 150 245
55 1 162 100 150 245
55 1 163 100 150 245
55 1 168 100 150 245
55 1 169 100 150 245
55 1 172 100 150 245
55 1 173 100 150 245
55 1 174 100 150 245
55 1 179 100 150 245
55 1 180 100 150 245
55 1 181 100 150 245
55 1 184 100 150 245
55 1 185 100 150 245
55 1 188 100 150 245
55 2 109 100 150 245
55 2 117 100 150 245
55 2 118 100 150 245
55 2 131 100 150 245
55 2 192 100 150 245
55 2 196 100 150 245
55 3 109 100 150 245
55 3 117 100 150 245
55 3 118 100 150 245
55 3 131 100 150 245
55 3 132 100 150 245
55 3 196 100 150 245
55 3 197 100 150 245
55 4 109 100 150 245
55 4 110 100 150 245
55 4 111 100 150 245
55 4 117 100 150 245
55 4 196 100 150 245
55 4 197 100 150 245
55 5 24 100 150 245
55 5 111 100 150 245
55 5 112 100 150 245
55 5 113 100 150 245
55 5 114 100 150 245
55 5 115 100 150 245
55 5 116 100 150 245
55 5 117 100 150 245
55 5 118 100 150 245
55 5 131 100 150 245
55 5 132 100 150 245
55 5 196 100 150 245
55 6 24 100 150 245
55 6 130 100 150 245
55 6 131 100 150 245
55 6 132 100 150 245
55 6 196 100 150 245
55 7 130 100 150 245
56 0 46 100 150 245
56 0 47 100 150 245
56 0 54 100 150 245
56 0 55 100 150 245
56 0 56 100 150 245
56 0 62 100 150 245
56 0 63 100 150 245
56 0 64 100 150 245
56 0 69 100 150 245
56 0 70 100 150 245
56 0 75 100 150 245
56 0 76 100 150 245
56 0 82 100 150 245
56 0 85 100 150 245
56 0 86 100 150 245
56 0 90 100 150 245
56 0 91 100 150 245
56 0 100 100 150 245
56 0 101 100 150 245
56 0 102 100 150 245
56 0 103 100 150 245
56 1 109 100 150 245
56 1 143 100 150 245
56 1 147 100 150 245
56 1 148 100 150 245
56 1 149 100 150 245
56 1 150 100 150 245
56 1 151 100 150 245
56 1 154 100 150 245
56 1 155 100 150 245
56 1 159 100 150 245
56 1 160 100 150 245
56 1 162 100 150 245
56 1 166 100 150 245
56 1 167 100 150 245
56 1 168 100 150 245
56 1 171 100 150 245
56 1 172 100 150 245
56 1 178 100 150 245
56 1 179 100 150 245
56 1 185 100 150 245
56 1 186 100 150 245
56 1 188 100 150 245
56 2 108 100 150 245
56 2 117 100 150 245
56 2 132 100 150 245
56 2 192 100 150 245
56 2 196 100 150 245
56 2 197 100 150 245
56 3 117 100 150 245
56 3 132 100 150 245
56 3 197 100 150 245
56 4 109 100 150 245
56 4 110 100 150 245
56 4 133 100 150 245
56 4 197 100 150 245
56 5 23 100 150 245
56 5 111 100 150 245
56 5 112 100 150 245
56 5 113 100 150 245
56 5 114 100 150 245
56 5 117 100 150 245
56 5 118 100 150 245
56 5 133 100 150 245
56 5 197 100 150 245
56 6 24 100 150 245
56 6 25 100 150 245
56 6 131 100 150 245
56 6 196 100 150 245
56 6 197 100 150 245
57 0 47 100 150 245
57 0 48 100 150 245
57 0 56 100 150 245
57 0 57 100 150 245
57 0 64 100 150 245
57 0 65 100 150 245
57 0 71 100 150 245
57 0 76 100 150 245
57 0 77 100 150 245
57 0 82 100 150 245
57 0 83 100 150 245
57 0 86 100 150 245
57 0 87 100 150 245
57 0 91 100 150 245
57 0 92 100 150 245
57 0 101 100 150 245
57 0 103 100 150 245
57 0 104 100 150 245
57 0 105 100 150 245
57 0 106 100 150 245
57 0 107 100 150 245
57 0 108 100 150 245
57 0 109 100 150 245
57 1 109 100 150 245
57 1 129 100 150 245
57 1 130 100 150 245
57 1 131 100 150 245
57 1 132 100 150 245
57 1 133 100 150 245
57 1 143 100 150 245
57 1 144 100 150 245
57 1 145 100 150 245
57 1 146 100 150 245
57 1 159 100 150 245
57 1 161 100 150 245
57 1 165 100 150 245
57 1 166 100 150 245
57 1 170 100 150 245
57 1 171 100 150 245
57 1 176 100 150 245
57 1 177 100 150 245
57 1 183 100 150 245
57 1 184 100 150 245
57 1 185 100 150 245
57 1 186 100 150 245
57 1 187 100 150 245
57 1 188 100 150 245
57 2 132 100 150 245
57 2 133 100 150 245
57 2 192 100 150 245
57 2 196 100 150 245
57 2 198 100 150 245
57 3 132 100 150 245
57 3 133 100 150 245
57 3 198 100 150 245
57 4 109 100 150 245
57 4 133 100 150 245
57 4 197 100 150 245
57 4 198 100 150 245
57 5 110 100 150 245
57 5 111 100 150 245
57 5 112 100 150 245
57 5 113 100 150 245
57 5 117 100 150 245
57 5 118 100 150 245
57 5 119 100 150 245
57 5 133 100 150 245
57 5 197 100 150 245
57 5 198 100 150 245
57 6 25 100 150 245
57 6 26 100 150 245
57 6 117 100 150 245
57 6 118 100 150 245
57 6 119 100 150 245
57 6 132 100 150 245
57 6 198 100 150 245
57 6 204 100 150 245
58 0 40 100 150 245
58 0 49 100 150 245
58 0 50 100 150 245
58 0 58 100 150 245
58 0 59 100 150 245
58 0 65 100 150 245
58 0 66 100 150 245
58 0 67 100 150 245
58 0 71 100 150 245
58 0 72 100 150 245
58 0 77 100 150 245
58 0 78 100 150 245
58 0 83 100 150 245
58 0 84 100 150 245
58 0 87 100 150 245
58 0 88 100 150 245
58 0 92 100 150 245
58 0 93 100 150 245
58 1 116 100 150 245
58 1 133 100 150 245
58 1 135 100 150 245
58 1 136 100 150 245
58 1 137 100 150 245
58 1 138 100 150 245
58 1 147 100 150 245
58 1 148 100 150 245
58 1 149 100 150 245
58 1 150 100 150 245
58 1 151 100 150 245
58 1 152 100 150 245
58 1 153 100 150 245
58 1 154 100 150 245
58 1 155 100 150 245
58 1 156 100 150 245
58 1 157 100 150 245
58 1 158 100 150 245
58 1 160 100 150 245
58 1 164 100 150 245
58 1 165 100 150 245
58 1 169 100 150 245
58 1 170 100 150 245
58 1 174 100 150 245
58 1 175 100 150 245
58 1 181 100 150 245
58 1 182 100 150 245
58 1 183 100 150 245
58 1 187 100 150 245
58 1 191 100 150 245
58 1 192 100 150 245
58 2 133 100 150 245
58 2 192 100 150 245
58 2 196 100 150 245
58 2 198 100 150 245
58 3 133 100 150 245
58 3 198 100 150 245
58 3 199 100 150 245
58 4 133 100 150 245
58 4 134 100 150 245
58 4 190 100 150 245
58 4 191 100 150 245
58 4 198 100 150 245
58 5 25 100 150 245
58 5 27 100 150 245
58 5 110 100 150 245
58 5 111 100 150 245
58 5 112 100 150 245
58 5 113 100 150 245
58 5 114 100 150 245
58 5 133 100 150 245
58 5 134 100 150 245
58 5 198 100 150 245
58 6 26 100 150 245
58 6 27 100 150 245
58 6 118 100 150 245
58 6 119 100 150 245
58 6 197 100 150 245
58 6 198 100 150 245
58 6 203 100 150 245
58 6 204 100 150 245
58 6 205 100 150 245
59 0 41 100 150 245
59 0 42 100 150 245
59 0 50 100 150 245
59 0 51 100 150 245
59 0 59 100 150 245
59 0 60 100 150 245
59 0 67 100 150 245
59 0 68 100 150 245
59 0 72 100 150 245
59 0 73 100 150 245
59 0 78 100 150 245
59 0 79 100 150 245
59 0 84 100 150 245
59 0 85 100 150 245
59 0 88 100 150 245
59 0 89 100 150 245
59 0 94 100 150 245
59 0 95 100 150 245
59 1 133 100 150 245
59 1 134 100 150 245
59 1 135 100 150 245
59 1 138 100 150 245
59 1 144 100 150 245
59 1 145 100 150 245
59 1 146 100 150 245
59 1 147 100 150 245
59 1 151 100 150 245
59 1 152 100 150 245
59 1 153 100 150 245
59 1 154 100 150 245
59 1 155 100 150 245
59 1 156 100 150 245
59 1 157 100 150 245
59 1 158 100 150 245
59 1 159 100 150 245
59 1 160 100 150 245
