ply
format ascii 1.0
element vertex 2345
property float x
property float y
property float z
property uchar red
property uchar green
property uchar blue
end_header
36 5 91 100 150 245
36 5 92 100 150 245
36 5 93 100 150 245
36 5 94 100 150 245
36 5 95 100 150 245
36 5 96 100 150 245
36 5 97 100 150 245
36 5 98 100 150 245
36 5 99 100 150 245
36 5 100 100 150 245
36 5 101 100 150 245
36 5 102 100 150 245
36 5 103 100 150 245
36 5 104 100 150 245
36 5 105 100 150 245
36 5 106 100 150 245
36 5 107 100 150 245
36 5 108 100 150 245
36 5 109 100 150 245
36 5 110 100 150 245
36 5 111 100 150 245
36 5 112 100 150 245
36 5 113 100 150 245
36 6 0 100 150 245
36 6 1 100 150 245
36 6 2 100 150 245
36 6 3 100 150 245
36 6 4 100 150 245
36 6 5 100 150 245
36 6 6 100 150 245
36 6 7 100 150 245
36 6 8 100 150 245
36 6 9 100 150 245
36 6 10 100 150 245
36 6 11 100 150 245
36 6 12 100 150 245
36 6 13 100 150 245
36 6 14 100 150 245
36 6 15 100 150 245
36 6 16 100 150 245
36 6 17 100 150 245
36 6 18 100 150 245
36 6 19 100 150 245
36 6 20 100 150 245
36 6 21 100 150 245
36 6 22 100 150 245
36 6 23 100 150 245
36 6 24 100 150 245
36 6 25 100 150 245
36 6 26 100 150 245
36 6 27 100 150 245
36 6 28 100 150 245
36 6 29 100 150 245
36 6 30 100 150 245
36 6 31 100 150 245
36 6 32 100 150 245
36 6 33 100 150 245
36 6 34 100 150 245
36 6 35 100 150 245
36 6 36 100 150 245
36 6 37 100 150 245
36 6 38 100 150 245
36 6 39 100 150 245
36 6 40 100 150 245
36 6 41 100 150 245
36 6 42 100 150 245
36 6 43 100 150 245
36 6 44 100 150 245
36 6 45 100 150 245
36 6 46 100 150 245
36 6 47 100 150 245
36 6 48 100 150 245
36 6 49 100 150 245
36 6 50 100 150 245
36 6 51 100 150 245
36 6 52 100 150 245
36 6 53 100 150 245
36 6 54 100 150 245
36 6 55 100 150 245
36 6 56 100 150 245
36 6 57 100 150 245
36 6 58 100 150 245
36 6 59 100 150 245
36 6 60 100 150 245
36 6 61 100 150 245
36 6 62 100 150 245
36 6 63 100 150 245
36 6 64 100 150 245
36 6 65 100 150 245
36 6 66 100 150 245
36 6 67 100 150 245
36 6 68 100 150 245
36 6 69 100 150 245
36 6 70 100 150 245
36 6 71 100 150 245
36 6 72 100 150 245
36 6 73 100 150 245
36 6 74 100 150 245
36 6 75 100 150 245
36 6 76 100 150 245
36 6 77 100 150 245
36 6 78 100 150 245
36 6 79 100 150 245
36 6 80 100 150 245
36 6 81 100 150 245
36 6 82 100 150 245
36 6 83 100 150 245
36 6 84 100 150 245
36 6 85 100 150 245
36 6 86 100 150 245
36 6 87 100 150 245
36 6 88 100 150 245
36 6 89 100 150 245
36 6 90 100 150 245
36 6 91 100 150 245
36 6 92 100 150 245
36 6 93 100 150 245
36 6 94 100 150 245
36 6 95 100 150 245
36 6 96 100 150 245
36 6 97 100 150 245
36 6 98 100 150 245
36 6 99 100 150 245
36 6 100 100 150 245
36 6 101 100 150 245
36 6 102 100 150 245
36 6 103 100 150 245
36 6 104 100 150 245
36 6 105 100 150 245
36 6 106 100 150 245
36 6 107 100 150 245
36 6 108 100 150 245
36 6 109 100 150 245
36 6 110 100 150 245
36 6 111 100 150 245
36 6 112 100 150 245
36 6 113 100 150 245
36 7 0 100 150 245
36 7 1 100 150 245
36 7 2 100 150 245
36 7 3 100 150 245
36 7 4 100 150 245
36 7 5 100 150 245
36 7 6 100 150 245
36 7 7 100 150 245
36 7 8 100 150 245
36 7 9 100 150 245
36 7 10 100 150 245
36 7 11 100 150 245
36 7 12 100 150 245
36 7 13 100 150 245
36 7 14 100 150 245
36 7 15 100 150 245
36 7 16 100 150 245
36 7 17 100 150 245
36 7 18 100 150 245
36 7 19 100 150 245
36 7 20 100 150 245
36 7 21 100 150 245
36 7 22 100 150 245
36 7 23 100 150 245
36 7 24 100 150 245
36 7 25 100 150 245
36 7 26 100 150 245
36 7 27 100 150 245
36 7 28 100 150 245
36 7 29 100 150 245
36 7 30 100 150 245
36 7 31 100 150 245
36 7 32 100 150 245
36 7 33 100 150 245
36 7 34 100 150 245
36 7 35 100 150 245
36 7 36 100 150 245
36 7 37 100 150 245
36 7 38 100 150 245
36 7 39 100 150 245
36 7 40 100 150 245
36 7 41 100 150 245
36 7 42 100 150 245
36 7 43 100 150 245
36 7 44 100 150 245
36 7 45 100 150 245
36 7 46 100 150 245
36 7 47 100 150 245
36 7 48 100 150 245
36 7 49 100 150 245
36 7 50 100 150 245
36 7 51 100 150 245
36 7 52 100 150 245
36 7 53 100 150 245
36 7 54 100 150 245
36 7 55 100 150 245
36 7 56 100 150 245
36 7 57 100 150 245
36 7 58 100 150 245
36 7 59 100 150 245
36 7 60 100 150 245
36 7 61 100 150 245
36 7 62 100 150 245
36 7 63 100 150 245
36 7 64 100 150 245
36 7 65 100 150 245
36 7 66 100 150 245
36 7 67 100 150 245
36 7 68 100 150 245
36 7 69 100 150 245
36 7 70 100 150 245
36 7 71 100 150 245
36 7 72 100 150 245
36 7 73 100 150 245
36 7 74 100 150 245
36 7 75 100 150 245
36 7 76 100 150 245
36 7 77 100 150 245
36 7 78 100 150 245
36 7 79 100 150 245
36 7 80 100 150 245
36 7 81 100 150 245
36 7 82 100 150 245
36 7 83 100 150 245
36 7 84 100 150 245
36 7 85 100 150 245
36 7 86 100 150 245
36 7 87 100 150 245
36 7 88 100 150 245
36 7 89 100 150 245
36 7 90 100 150 245
36 7 91 100 150 245
36 7 92 100 150 245
36 7 93 100 150 245
36 7 94 100 150 245
36 7 95 100 150 245
36 7 96 100 150 245
36 7 97 100 150 245
36 7 98 100 150 245
36 7 99 100 150 245
36 7 100 100 150 245
36 7 101 100 150 245
36 7 102 100 150 245
36 7 103 100 150 245
36 7 104 100 150 245
36 7 105 100 150 245
36 7 106 100 150 245
36 7 107 100 150 245
36 7 108 100 150 245
36 7 109 100 150 245
36 7 110 100 150 245
36 7 111 100 150 245
36 7 112 100 150 245
36 7 113 100 150 245
36 8 0 100 150 245
36 8 1 100 150 245
36 8 2 100 150 245
36 8 3 100 150 245
36 8 4 100 150 245
36 8 5 100 150 245
36 8 6 100 150 245
36 8 7 100 150 245
36 8 8 100 150 245
36 8 9 100 150 245
36 8 10 100 150 245
36 8 11 100 150 245
36 8 12 100 150 245
36 8 13 100 150 245
36 8 14 100 150 245
36 8 15 100 150 245
36 8 16 100 150 245
36 8 17 100 150 245
36 8 18 100 150 245
36 8 19 100 150 245
36 8 20 100 150 245
36 8 21 100 150 245
36 8 22 100 150 245
36 8 23 100 150 245
36 8 24 100 150 245
36 8 25 100 150 245
36 8 26 100 150 245
36 8 27 100 150 245
36 8 28 100 150 245
36 8 29 100 150 245
36 8 30 100 150 245
36 8 31 100 150 245
36 8 32 100 150 245
36 8 33 100 150 245
36 8 34 100 150 245
36 8 35 100 150 245
36 8 36 100 150 245
36 8 37 100 150 245
36 8 38 100 150 245
36 8 39 100 150 245
36 8 40 100 150 245
36 8 41 100 150 245
36 8 42 100 150 245
36 8 43 100 150 245
36 8 44 100 150 245
36 8 45 100 150 245
36 8 46 100 150 245
36 8 47 100 150 245
36 8 48 100 150 245
36 8 49 100 150 245
36 8 50 100 150 245
36 8 51 100 150 245
36 8 52 100 150 245
36 8 53 100 150 245
36 8 54 100 150 245
36 8 55 100 150 245
36 8 56 100 150 245
36 8 57 100 150 245
36 8 58 100 150 245
36 8 59 100 150 245
36 8 60 100 150 245
36 8 61 100 150 245
36 8 62 100 150 245
36 8 63 100 150 245
36 8 64 100 150 245
36 8 65 100 150 245
36 8 66 100 150 245
36 8 67 100 150 245
36 8 68 100 150 245
36 8 69 100 150 245
36 8 70 100 150 245
36 8 71 100 150 245
36 8 72 100 150 245
36 8 73 100 150 245
36 8 74 100 150 245
36 8 75 100 150 245
36 8 76 100 150 245
36 8 77 100 150 245
36 8 78 100 150 245
36 8 79 100 150 245
36 8 80 100 150 245
36 8 81 100 150 245
36 8 82 100 150 245
36 8 83 100 150 245
36 8 84 100 150 245
36 8 85 100 150 245
36 8 86 100 150 245
36 8 87 100 150 245
36 8 88 100 150 245
36 8 89 100 150 245
36 8 90 100 150 245
36 8 91 100 150 245
36 8 92 100 150 245
36 8 93 100 150 245
36 8 94 100 150 245
36 8 95 100 150 245
36 8 96 100 150 245
36 8 97 100 150 245
36 8 98 100 150 245
36 8 99 100 150 245
36 8 100 100 150 245
36 8 101 100 150 245
36 8 102 100 150 245
36 8 103 100 150 245
36 8 104 100 150 245
36 8 105 100 150 245
36 8 106 100 150 245
36 8 107 100 150 245
36 8 108 100 150 245
36 8 109 100 150 245
36 8 110 100 150 245
36 8 111 100 150 245
36 8 112 100 150 245
36 8 113 100 150 245
36 9 0 100 150 245
36 9 1 100 150 245
36 9 2 100 150 245
36 9 3 100 150 245
36 9 4 100 150 245
36 9 5 100 150 245
36 9 6 100 150 245
36 9 7 100 150 245
36 9 8 100 150 245
36 9 9 100 150 245
36 9 10 100 150 245
36 9 11 100 150 245
36 9 12 100 150 245
36 9 13 100 150 245
36 9 14 100 150 245
36 9 15 100 150 245
36 9 16 100 150 245
36 9 17 100 150 245
36 9 18 100 150 245
36 9 19 100 150 245
36 9 20 100 150 245
36 9 21 100 150 245
36 9 22 100 150 245
36 9 23 100 150 245
36 9 24 100 150 245
36 9 25 100 150 245
36 9 26 100 150 245
36 9 27 100 150 245
36 9 28 100 150 245
36 9 29 100 150 245
36 9 30 100 150 245
36 9 31 100 150 245
36 9 32 100 150 245
36 9 33 100 150 245
36 9 34 100 150 245
36 9 35 100 150 245
36 9 36 100 150 245
36 9 37 100 150 245
36 9 38 100 150 245
36 9 39 100 150 245
36 9 40 100 150 245
36 9 41 100 150 245
36 9 42 100 150 245
36 9 43 100 150 245
36 9 44 100 150 245
36 9 45 100 150 245
36 9 46 100 150 245
36 9 47 100 150 245
36 9 48 100 150 245
36 9 49 100 150 245
36 9 50 100 150 245
36 9 51 100 150 245
36 9 52 100 150 245
36 9 53 100 150 245
36 9 54 100 150 245
36 9 55 100 150 245
36 9 56 100 150 245
36 9 57 100 150 245
36 9 58 100 150 245
36 9 59 100 150 245
36 9 60 100 150 245
36 9 61 100 150 245
36 9 62 100 150 245
36 9 63 100 150 245
36 9 64 100 150 245
36 9 65 100 150 245
36 9 66 100 150 245
36 9 67 100 150 245
36 9 68 100 150 245
36 9 69 100 150 245
36 9 70 100 150 245
36 9 71 100 150 245
36 9 72 100 150 245
36 9 73 100 150 245
36 9 74 100 150 245
36 9 75 100 150 245
36 9 76 100 150 245
36 9 77 100 150 245
36 9 78 100 150 245
36 9 79 100 150 245
36 9 80 100 150 245
36 9 81 100 150 245
36 9 82 100 150 245
36 9 83 100 150 245
36 9 84 100 150 245
36 9 85 100 150 245
36 9 86 100 150 245
36 9 87 100 150 245
36 9 88 100 150 245
36 9 89 100 150 245
36 9 90 100 150 245
36 9 91 100 150 245
36 9 92 100 150 245
36 9 93 100 150 245
36 9 94 100 150 245
36 9 95 100 150 245
36 9 96 100 150 245
36 9 97 100 150 245
36 9 98 100 150 245
36 9 99 100 150 245
36 9 100 100 150 245
36 9 101 100 150 245
36 9 102 100 150 245
36 9 103 100 150 245
36 9 104 100 150 245
36 9 105 100 150 245
36 9 106 100 150 245
36 9 107 100 150 245
36 9 108 100 150 245
36 9 109 100 150 245
36 9 110 100 150 245
36 9 111 100 150 245
36 9 112 100 150 245
36 9 113 100 150 245
36 10 0 100 150 245
36 10 1 100 150 245
36 10 2 100 150 245
36 10 3 100 150 245
36 10 4 100 150 245
36 10 5 100 150 245
36 10 6 100 150 245
36 10 7 100 150 245
36 10 8 100 150 245
36 10 9 100 150 245
36 10 10 100 150 245
36 10 11 100 150 245
36 10 12 100 150 245
36 10 13 100 150 245
36 10 14 100 150 245
36 10 15 100 150 245
36 10 16 100 150 245
36 10 17 100 150 245
36 10 18 100 150 245
36 10 19 100 150 245
36 10 20 100 150 245
36 10 21 100 150 245
36 10 22 100 150 245
36 10 23 100 150 245
36 10 24 100 150 245
36 10 25 100 150 245
36 10 26 100 150 245
36 10 27 100 150 245
36 10 28 100 150 245
36 10 29 100 150 245
36 10 30 100 150 245
36 10 31 100 150 245
36 10 32 100 150 245
36 10 33 100 150 245
36 10 34 100 150 245
36 10 35 100 150 245
36 10 36 100 150 245
36 10 37 100 150 245
36 10 38 100 150 245
36 10 39 100 150 245
36 10 40 100 150 245
36 10 41 100 150 245
36 10 42 100 150 245
36 10 43 100 150 245
36 10 44 100 150 245
36 10 45 100 150 245
36 10 46 100 150 245
36 10 47 100 150 245
36 10 48 100 150 245
36 10 49 100 150 245
36 10 50 100 150 245
36 10 51 100 150 245
36 10 52 100 150 245
36 10 53 100 150 245
36 10 54 100 150 245
36 10 55 100 150 245
36 10 56 100 150 245
36 10 57 100 150 245
36 10 58 100 150 245
36 10 59 100 150 245
36 10 60 100 150 245
36 10 61 100 150 245
36 10 62 100 150 245
36 10 63 100 150 245
36 10 64 100 150 245
36 10 65 100 150 245
36 10 66 100 150 245
36 10 67 100 150 245
36 10 68 100 150 245
36 10 69 100 150 245
36 10 70 100 150 245
36 10 71 100 150 245
36 10 72 100 150 245
36 10 73 100 150 245
36 10 74 100 150 245
36 10 75 100 150 245
36 10 76 100 150 245
36 10 77 100 150 245
36 10 78 100 150 245
36 10 79 100 150 245
36 10 80 100 150 245
36 10 81 100 150 245
36 10 82 100 150 245
36 10 83 100 150 245
36 10 84 100 150 245
36 10 85 100 150 245
36 10 86 100 150 245
36 10 87 100 150 245
36 10 88 100 150 245
36 10 89 100 150 245
36 10 90 100 150 245
36 10 91 100 150 245
36 10 92 100 150 245
36 10 93 100 150 245
36 10 94 100 150 245
36 10 95 100 150 245
36 10 96 100 150 245
36 10 97 100 150 245
36 10 98 100 150 245
36 10 99 100 150 245
36 10 100 100 150 245
36 10 101 100 150 245
36 10 102 100 150 245
36 10 103 100 150 245
36 10 104 100 150 245
36 10 105 100 150 245
36 10 106 100 150 245
36 10 107 100 150 245
36 10 108 100 150 245
36 10 109 100 150 245
36 10 110 100 150 245
36 10 111 100 150 245
36 10 112 100 150 245
36 10 113 100 150 245
36 11 0 100 150 245
36 11 1 100 150 245
36 11 2 100 150 245
36 11 3 100 150 245
36 11 4 100 150 245
36 11 5 100 150 245
36 11 6 100 150 245
36 11 7 100 150 245
36 11 8 100 150 245
36 11 9 100 150 245
36 11 10 100 150 245
36 11 11 100 150 245
36 11 12 100 150 245
36 11 13 100 150 245
36 11 14 100 150 245
36 11 15 100 150 245
36 11 16 100 150 245
36 11 17 100 150 245
36 11 18 100 150 245
36 11 19 100 150 245
36 11 20 100 150 245
36 11 21 100 150 245
36 11 22 100 150 245
36 11 23 100 150 245
36 11 24 100 150 245
36 11 25 100 150 245
36 11 26 100 150 245
36 11 27 100 150 245
36 11 28 100 150 245
36 11 29 100 150 245
36 11 30 100 150 245
36 11 31 100 150 245
36 11 32 100 150 245
36 11 33 100 150 245
36 11 34 100 150 245
36 11 35 100 150 245
36 11 36 100 150 245
36 11 37 100 150 245
36 11 38 100 150 245
36 11 39 100 150 245
36 11 40 100 150 245
36 11 41 100 150 245
36 11 42 100 150 245
36 11 43 100 150 245
36 11 44 100 150 245
36 11 45 100 150 245
36 11 46 100 150 245
36 11 47 100 150 245
36 11 48 100 150 245
36 11 49 100 150 245
36 11 50 100 150 245
36 11 51 100 150 245
36 11 52 100 150 245
36 11 53 100 150 245
36 11 54 100 150 245
36 11 55 100 150 245
36 11 56 100 150 245
36 11 57 100 150 245
36 11 58 100 150 245
36 11 59 100 150 245
36 11 60 100 150 245
36 11 61 100 150 245
36 11 62 100 150 245
36 11 63 100 150 245
36 11 64 100 150 245
36 11 65 100 150 245
36 11 66 100 150 245
36 11 67 100 150 245
36 11 68 100 150 245
36 11 69 100 150 245
36 11 70 100 150 245
36 11 71 100 150 245
36 11 72 100 150 245
36 11 73 100 150 245
36 11 74 100 150 245
36 11 75 100 150 245
36 11 76 100 150 245
36 11 77 100 150 245
36 11 78 100 150 245
36 11 79 100 150 245
36 11 80 100 150 245
36 11 81 100 150 245
36 11 82 100 150 245
36 11 83 100 150 245
36 11 84 100 150 245
36 11 85 100 150 245
36 11 86 100 150 245
36 11 87 100 150 245
36 11 88 100 150 245
36 11 89 100 150 245
36 11 90 100 150 245
36 11 91 100 150 245
36 11 92 100 150 245
36 11 93 100 150 245
36 11 94 100 150 245
36 11 95 100 150 245
36 11 96 100 150 245
36 11 97 100 150 245
36 11 98 100 150 245
36 11 99 100 150 245
36 11 100 100 150 245
36 11 101 100 150 245
36 11 102 100 150 245
36 11 103 100 150 245
36 11 104 100 150 245
36 11 105 100 150 245
36 11 106 100 150 245
36 11 107 100 150 245
36 11 108 100 150 245
36 11 109 100 150 245
36 11 110 100 150 245
36 11 111 100 150 245
36 11 112 100 150 245
36 11 113 100 150 245
36 12 0 100 150 245
36 12 1 100 150 245
36 12 2 100 150 245
36 12 3 100 150 245
36 12 4 100 150 245
36 12 5 100 150 245
36 12 6 100 150 245
36 12 7 100 150 245
36 12 8 100 150 245
36 12 9 100 150 245
36 12 10 100 150 245
36 12 11 100 150 245
36 12 12 100 150 245
36 12 13 100 150 245
36 12 14 100 150 245
36 12 15 100 150 245
36 12 16 100 150 245
36 12 17 100 150 245
36 12 18 100 150 245
36 12 19 100 150 245
36 12 20 100 150 245
36 12 21 100 150 245
36 12 22 100 150 245
36 12 23 100 150 245
36 12 24 100 150 245
36 12 25 100 150 245
36 12 26 100 150 245
36 12 27 100 150 245
36 12 28 100 150 245
36 12 29 100 150 245
36 12 30 100 150 245
36 12 31 100 150 245
36 12 32 100 150 245
36 12 33 100 150 245
36 12 34 100 150 245
36 12 35 100 150 245
36 12 36 100 150 245
36 12 37 100 150 245
36 12 38 100 150 245
36 12 39 100 150 245
36 12 40 100 150 245
36 12 41 100 150 245
36 12 42 100 150 245
36 12 43 100 150 245
36 12 44 100 150 245
36 12 45 100 150 245
36 12 46 100 150 245
36 12 47 100 150 245
36 12 48 100 150 245
36 12 49 100 150 245
36 12 50 100 150 245
36 12 51 100 150 245
36 12 52 100 150 245
36 12 53 100 150 245
36 12 54 100 150 245
36 12 55 100 150 245
36 12 56 100 150 245
36 12 57 100 150 245
36 12 58 100 150 245
36 12 59 100 150 245
36 12 60 100 150 245
36 12 61 100 150 245
36 12 62 100 150 245
36 12 63 100 150 245
36 12 64 100 150 245
36 12 65 100 150 245
36 12 66 100 150 245
36 12 67 100 150 245
36 12 68 100 150 245
36 12 69 100 150 245
36 12 70 100 150 245
36 12 71 100 150 245
36 12 72 100 150 245
36 12 73 100 150 245
36 12 74 100 150 245
36 12 75 100 150 245
36 12 76 100 150 245
36 12 77 100 150 245
36 12 78 100 150 245
36 12 79 100 150 245
36 12 80 100 150 245
36 12 81 100 150 245
36 12 82 100 150 245
36 12 83 100 150 245
36 12 84 100 150 245
36 12 85 100 150 245
36 12 86 100 150 245
36 12 87 100 150 245
36 12 88 100 150 245
36 12 89 100 150 245
36 12 90 100 150 245
36 12 91 100 150 245
36 12 92 100 150 245
36 12 93 100 150 245
36 12 94 100 150 245
36 12 95 100 150 245
36 12 96 100 150 245
36 12 97 100 150 245
36 12 98 100 150 245
36 12 99 100 150 245
36 12 100 100 150 245
36 12 101 100 150 245
36 12 102 100 150 245
36 12 103 100 150 245
36 12 104 100 150 245
36 12 105 100 150 245
36 12 106 100 150 245
36 12 107 100 150 245
36 12 108 100 150 245
36 12 109 100 150 245
36 12 110 100 150 245
36 12 111 100 150 245
36 12 112 100 150 245
36 12 113 100 150 245
36 12 114 100 150 245
36 12 115 100 150 245
36 12 116 100 150 245
36 12 117 100 150 245
36 12 118 100 150 245
36 13 0 100 150 245
36 13 1 100 150 245
36 13 2 100 150 245
36 13 3 100 150 245
36 13 4 100 150 245
36 13 5 100 150 245
36 13 6 100 150 245
36 13 7 100 150 245
36 13 8 100 150 245
36 13 9 100 150 245
36 13 10 100 150 245
36 13 11 100 150 245
36 13 12 100 150 245
36 13 13 100 150 245
36 13 14 100 150 245
36 13 15 100 150 245
36 13 16 100 150 245
36 13 17 100 150 245
36 13 18 100 150 245
36 13 19 100 150 245
36 13 20 100 150 245
36 13 21 100 150 245
36 13 22 100 150 245
36 13 23 100 150 245
36 13 24 100 150 245
36 13 25 100 150 245
36 13 26 100 150 245
36 13 27 100 150 245
36 13 28 100 150 245
36 13 29 100 150 245
36 13 30 100 150 245
36 13 31 100 150 245
36 13 32 100 150 245
36 13 33 100 150 245
36 13 34 100 150 245
36 13 35 100 150 245
36 13 36 100 150 245
36 13 37 100 150 245
36 13 38 100 150 245
36 13 39 100 150 245
36 13 40 100 150 245
36 13 41 100 150 245
36 13 42 100 150 245
36 13 43 100 150 245
36 13 44 100 150 245
36 13 45 100 150 245
36 13 46 100 150 245
36 13 47 100 150 245
36 13 48 100 150 245
36 13 49 100 150 245
36 13 50 100 150 245
36 13 51 100 150 245
36 13 52 100 150 245
36 13 53 100 150 245
36 13 54 100 150 245
36 13 55 100 150 245
36 13 56 100 150 245
36 13 57 100 150 245
36 13 58 100 150 245
36 13 59 100 150 245
36 13 60 100 150 245
36 13 61 100 150 245
36 13 62 100 150 245
36 13 63 100 150 245
36 13 64 100 150 245
36 13 65 100 150 245
36 13 66 100 150 245
36 13 67 100 150 245
36 13 68 100 150 245
36 13 69 100 150 245
36 13 70 100 150 245
36 13 71 100 150 245
36 13 72 100 150 245
36 13 73 100 150 245
36 13 74 100 150 245
36 13 75 100 150 245
36 13 76 100 150 245
36 13 77 100 150 245
36 13 78 100 150 245
36 13 79 100 150 245
36 13 80 100 150 245
36 13 81 100 150 245
36 13 82 100 150 245
36 13 83 100 150 245
36 13 84 100 150 245
36 13 85 100 150 245
36 13 86 100 150 245
36 13 87 100 150 245
36 13 88 100 150 245
36 13 89 100 150 245
36 13 90 100 150 245
36 13 91 100 150 245
36 13 92 100 150 245
36 13 93 100 150 245
36 13 94 100 150 245
36 13 95 100 150 245
36 13 96 100 150 245
36 13 97 100 150 245
36 13 98 100 150 245
36 13 99 100 150 245
36 13 100 100 150 245
36 13 101 100 150 245
36 13 102 100 150 245
36 13 103 100 150 245
36 13 104 100 150 245
36 13 105 100 150 245
36 13 106 100 150 245
36 13 107 100 150 245
36 13 108 100 150 245
36 13 109 100 150 245
36 13 110 100 150 245
36 13 111 100 150 245
36 13 112 100 150 245
36 13 113 100 150 245
36 13 114 100 150 245
36 13 115 100 150 245
36 13 116 100 150 245
36 13 117 100 150 245
36 13 118 100 150 245
36 13 119 100 150 245
36 13 120 100 150 245
36 13 121 100 150 245
36 13 122 100 150 245
36 13 123 100 150 245
36 13 124 100 150 245
36 13 125 100 150 245
36 13 126 100 150 245
36 13 127 100 150 245
36 14 0 100 150 245
36 14 1 100 150 245
36 14 2 100 150 245
36 14 3 100 150 245
36 14 4 100 150 245
36 14 5 100 150 245
36 14 6 100 150 245
36 14 7 100 150 245
36 14 8 100 150 245
36 14 9 100 150 245
36 14 10 100 150 245
36 14 11 100 150 245
36 14 12 100 150 245
36 14 13 100 150 245
36 14 14 100 150 245
36 14 15 100 150 245
36 14 16 100 150 245
36 14 17 100 150 245
36 14 18 100 150 245
36 14 19 100 150 245
36 14 20 100 150 245
36 14 21 100 150 245
36 14 22 100 150 245
36 14 23 100 150 245
36 14 24 100 150 245
36 14 25 100 150 245
36 14 26 100 150 245
36 14 27 100 150 245
36 14 28 100 150 245
36 14 29 100 150 245
36 14 30 100 150 245
36 14 31 100 150 245
36 14 32 100 150 245
36 14 33 100 150 245
36 14 34 100 150 245
36 14 35 100 150 245
36 14 36 100 150 245
36 14 37 100 150 245
36 14 38 100 150 245
36 14 39 100 150 245
36 14 40 100 150 245
36 14 41 100 150 245
36 14 42 100 150 245
36 14 43 100 150 245
36 14 44 100 150 245
36 14 45 100 150 245
36 14 46 100 150 245
36 14 47 100 150 245
36 14 48 100 150 245
36 14 49 100 150 245
36 14 50 100 150 245
36 14 51 100 150 245
36 14 52 100 150 245
36 14 53 100 150 245
36 14 54 100 150 245
36 14 55 100 150 245
36 14 56 100 150 245
36 14 57 100 150 245
36 14 58 100 150 245
36 14 59 100 150 245
36 14 60 100 150 245
36 14 61 100 150 245
36 14 62 100 150 245
36 14 63 100 150 245
36 14 64 100 150 245
36 14 65 100 150 245
36 14 66 100 150 245
36 14 67 100 150 245
36 14 68 100 150 245
36 14 69 100 150 245
36 14 70 100 150 245
36 14 71 100 150 245
36 14 72 100 150 245
36 14 73 100 150 245
36 14 74 100 150 245
36 14 75 100 150 245
36 14 76 100 150 245
36 14 77 100 150 245
36 14 78 100 150 245
36 14 79 100 150 245
36 14 80 100 150 245
36 14 81 100 150 245
36 14 82 100 150 245
36 14 83 100 150 245
36 14 84 100 150 245
36 14 85 100 150 245
36 14 86 100 150 245
36 14 87 100 150 245
36 14 88 100 150 245
36 14 89 100 150 245
36 14 90 100 150 245
36 14 91 100 150 245
36 14 92 100 150 245
36 14 93 100 150 245
36 14 94 100 150 245
36 14 95 100 150 245
36 14 96 100 150 245
36 14 97 100 150 245
36 14 98 100 150 245
36 14 99 100 150 245
36 14 100 100 150 245
36 14 101 100 150 245
36 14 102 100 150 245
36 14 103 100 150 245
36 14 104 100 150 245
36 14 105 100 150 245
36 14 106 100 150 245
36 14 107 100 150 245
36 14 108 100 150 245
36 14 109 100 150 245
36 14 110 100 150 245
36 14 111 100 150 245
36 14 112 100 150 245
36 14 113 100 150 245
36 14 114 100 150 245
36 14 115 100 150 245
36 14 116 100 150 245
36 14 117 100 150 245
36 14 118 100 150 245
36 14 119 100 150 245
36 14 120 100 150 245
36 14 121 100 150 245
36 14 122 100 150 245
36 14 123 100 150 245
36 14 124 100 150 245
36 14 125 100 150 245
36 14 126 100 150 245
36 14 127 100 150 245
36 15 0 100 150 245
36 15 1 100 150 245
36 15 2 100 150 245
36 15 3 100 150 245
36 15 4 100 150 245
36 15 5 100 150 245
36 15 6 100 150 245
36 15 7 100 150 245
36 15 8 100 150 245
36 15 9 100 150 245
36 15 10 100 150 245
36 15 11 100 150 245
36 15 12 100 150 245
36 15 13 100 150 245
36 15 14 100 150 245
36 15 15 100 150 245
36 15 16 100 150 245
36 15 17 100 150 245
36 15 18 100 150 245
36 15 19 100 150 245
36 15 20 100 150 245
36 15 21 100 150 245
36 15 22 100 150 245
36 15 23 100 150 245
36 15 24 100 150 245
36 15 25 100 150 245
36 15 26 100 150 245
36 15 27 100 150 245
36 15 28 100 150 245
36 15 29 100 150 245
36 15 30 100 150 245
36 15 31 100 150 245
36 15 32 100 150 245
36 15 33 100 150 245
36 15 34 100 150 245
36 15 35 100 150 245
36 15 36 100 150 245
36 15 37 100 150 245
36 15 38 100 150 245
36 15 39 100 150 245
36 15 40 100 150 245
36 15 41 100 150 245
36 15 42 100 150 245
36 15 43 100 150 245
36 15 44 100 150 245
36 15 45 100 150 245
36 15 46 100 150 245
36 15 47 100 150 245
36 15 48 100 150 245
36 15 49 100 150 245
36 15 50 100 150 245
36 15 51 100 150 245
36 15 52 100 150 245
36 15 53 100 150 245
36 15 54 100 150 245
36 15 55 100 150 245
36 15 56 100 150 245
36 15 57 100 150 245
36 15 58 100 150 245
36 15 59 100 150 245
36 15 60 100 150 245
36 15 61 100 150 245
36 15 62 100 150 245
36 15 63 100 150 245
36 15 64 100 150 245
36 15 65 100 150 245
36 15 66 100 150 245
36 15 67 100 150 245
36 15 68 100 150 245
36 15 69 100 150 245
36 15 70 100 150 245
36 15 71 100 150 245
36 15 72 100 150 245
36 15 73 100 150 245
36 15 74 100 150 245
36 15 75 100 150 245
36 15 76 100 150 245
36 15 77 100 150 245
36 15 78 100 150 245
36 15 79 100 150 245
36 15 80 100 150 245
36 15 81 100 150 245
36 15 82 100 150 245
36 15 83 100 150 245
36 15 84 100 150 245
36 15 85 100 150 245
36 15 86 100 150 245
36 15 87 100 150 245
36 15 88 100 150 245
36 15 89 100 150 245
36 15 90 100 150 245
36 15 91 100 150 245
36 15 92 100 150 245
36 15 93 100 150 245
36 15 94 100 150 245
36 15 95 100 150 245
36 15 96 100 150 245
36 15 97 100 150 245
36 15 98 100 150 245
36 15 99 100 150 245
36 15 100 100 150 245
36 15 101 100 150 245
36 15 102 100 150 245
36 15 103 100 150 245
36 15 104 100 150 245
36 15 105 100 150 245
36 15 106 100 150 245
36 15 107 100 150 245
36 15 108 100 150 245
36 15 109 100 150 245
36 15 110 100 150 245
36 15 111 100 150 245
36 15 112 100 150 245
36 15 113 100 150 245
36 15 114 100 150 245
36 15 115 100 150 245
36 15 116 100 150 245
36 15 117 100 150 245
36 15 118 100 150 245
36 15 119 100 150 245
36 15 120 100 150 245
36 15 121 100 150 245
36 15 122 100 150 245
36 15 123 100 150 245
36 15 124 100 150 245
36 15 125 100 150 245
36 15 126 100 150 245
36 15 127 100 150 245
37 0 0 100 150 245
37 0 1 100 150 245
37 0 2 100 150 245
37 0 3 100 150 245
37 0 4 100 150 245
37 0 5 100 150 245
37 0 6 100 150 245
37 0 7 100 150 245
37 0 8 100 150 245
37 0 9 100 150 245
37 0 10 100 150 245
37 0 11 100 150 245
37 0 12 100 150 245
37 0 13 100 150 245
37 0 14 100 150 245
37 0 15 100 150 245
37 0 16 100 150 245
37 0 17 100 150 245
37 0 18 100 150 245
37 0 19 100 150 245
37 0 20 100 150 245
37 0 21 100 150 245
37 0 22 100 150 245
37 0 23 100 150 245
37 0 24 100 150 245
37 0 25 100 150 245
37 0 26 100 150 245
37 0 27 100 150 245
37 0 28 100 150 245
37 0 29 100 150 245
37 0 30 100 150 245
37 0 31 100 150 245
37 0 32 100 150 245
37 0 33 100 150 245
37 0 34 100 150 245
37 0 35 100 150 245
37 0 36 100 150 245
37 0 37 100 150 245
37 0 38 100 150 245
37 0 39 100 150 245
37 0 40 100 150 245
37 0 41 100 150 245
37 0 42 100 150 245
37 0 43 100 150 245
37 0 44 100 150 245
37 0 45 100 150 245
37 0 46 100 150 245
37 0 47 100 150 245
37 0 48 100 150 245
37 0 49 100 150 245
37 0 50 100 150 245
37 0 51 100 150 245
37 0 52 100 150 245
37 0 53 100 150 245
37 0 55 100 150 245
37 0 56 100 150 245
37 0 57 100 150 245
37 0 58 100 150 245
37 0 79 100 150 245
37 0 80 100 150 245
37 0 81 100 150 245
37 0 82 100 150 245
37 0 83 100 150 245
37 0 84 100 150 245
37 0 85 100 150 245
37 0 86 100 150 245
37 0 87 100 150 245
37 0 88 100 150 245
37 0 89 100 150 245
37 0 90 100 150 245
37 0 91 100 150 245
37 0 92 100 150 245
37 0 93 100 150 245
37 0 94 100 150 245
37 0 95 100 150 245
37 0 96 100 150 245
37 0 97 100 150 245
37 0 98 100 150 245
37 0 99 100 150 245
37 0 101 100 150 245
37 1 0 100 150 245
37 1 1 100 150 245
37 1 2 100 150 245
37 1 3 100 150 245
37 1 4 100 150 245
37 1 5 100 150 245
37 1 6 100 150 245
37 1 7 100 150 245
37 1 8 100 150 245
37 1 9 100 150 245
37 1 10 100 150 245
37 1 11 100 150 245
37 1 12 100 150 245
37 1 13 100 150 245
37 1 14 100 150 245
37 1 15 100 150 245
37 1 16 100 150 245
37 1 17 100 150 245
37 1 18 100 150 245
37 1 19 100 150 245
37 1 20 100 150 245
37 1 21 100 150 245
37 1 22 100 150 245
37 1 23 100 150 245
37 1 24 100 150 245
37 1 25 100 150 245
37 1 26 100 150 245
37 1 27 100 150 245
37 1 28 100 150 245
37 1 29 100 150 245
37 1 30 100 150 245
37 1 31 100 150 245
37 1 32 100 150 245
37 1 33 100 150 245
37 1 34 100 150 245
37 1 35 100 150 245
37 1 36 100 150 245
37 1 37 100 150 245
37 1 38 100 150 245
37 1 39 100 150 245
37 1 40 100 150 245
37 1 41 100 150 245
37 1 42 100 150 245
37 1 43 100 150 245
37 1 44 100 150 245
37 1 45 100 150 245
37 1 48 100 150 245
37 1 49 100 150 245
37 1 50 100 150 245
37 1 51 100 150 245
37 1 52 100 150 245
37 1 56 100 150 245
37 1 57 100 150 245
37 1 58 100 150 245
37 1 59 100 150 245
37 1 60 100 150 245
37 1 63 100 150 245
37 1 64 100 150 245
37 1 65 100 150 245
37 1 66 100 150 245
37 1 67 100 150 245
37 1 68 100 150 245
37 1 69 100 150 245
37 1 70 100 150 245
37 1 71 100 150 245
37 1 72 100 150 245
37 1 73 100 150 245
37 1 74 100 150 245
37 1 78 100 150 245
37 1 79 100 150 245
37 1 80 100 150 245
37 1 81 100 150 245
37 1 82 100 150 245
37 1 83 100 150 245
37 1 84 100 150 245
37 1 85 100 150 245
37 1 86 100 150 245
37 1 87 100 150 245
37 1 88 100 150 245
37 1 89 100 150 245
37 1 90 100 150 245
37 1 91 100 150 245
37 1 92 100 150 245
37 1 93 100 150 245
37 1 94 100 150 245
37 1 95 100 150 245
37 1 96 100 150 245
37 1 97 100 150 245
37 1 104 100 150 245
37 1 105 100 150 245
37 1 106 100 150 245
37 2 0 100 150 245
37 2 1 100 150 245
37 2 2 100 150 245
37 2 3 100 150 245
37 2 4 100 150 245
37 2 5 100 150 245
37 2 6 100 150 245
37 2 7 100 150 245
37 2 8 100 150 245
37 2 9 100 150 245
37 2 10 100 150 245
37 2 11 100 150 245
37 2 12 100 150 245
37 2 13 100 150 245
37 2 14 100 150 245
37 2 15 100 150 245
37 2 16 100 150 245
37 2 17 100 150 245
37 2 18 100 150 245
37 2 19 100 150 245
37 2 20 100 150 245
37 2 21 100 150 245
37 2 22 100 150 245
37 2 23 100 150 245
37 2 24 100 150 245
37 2 25 100 150 245
37 2 26 100 150 245
37 2 27 100 150 245
37 2 28 100 150 245
37 2 29 100 150 245
37 2 30 100 150 245
37 2 31 100 150 245
37 2 32 100 150 245
37 2 33 100 150 245
37 2 34 100 150 245
37 2 35 100 150 245
37 2 36 100 150 245
37 2 37 100 150 245
37 2 38 100 150 245
37 2 39 100 150 245
37 2 40 100 150 245
37 2 41 100 150 245
37 2 42 100 150 245
37 2 43 100 150 245
37 2 44 100 150 245
37 2 45 100 150 245
37 2 46 100 150 245
37 2 47 100 150 245
37 2 48 100 150 245
37 2 49 100 150 245
37 2 50 100 150 245
37 2 51 100 150 245
37 2 52 100 150 245
37 2 56 100 150 245
37 2 57 100 150 245
37 2 58 100 150 245
37 2 64 100 150 245
37 2 65 100 150 245
37 2 66 100 150 245
37 2 67 100 150 245
37 2 68 100 150 245
37 2 69 100 150 245
37 2 70 100 150 245
37 2 71 100 150 245
37 2 73 100 150 245
37 2 78 100 150 245
37 2 79 100 150 245
37 2 80 100 150 245
37 2 81 100 150 245
37 2 82 100 150 245
37 2 83 100 150 245
37 2 84 100 150 245
37 2 85 100 150 245
37 2 86 100 150 245
37 2 87 100 150 245
37 2 88 100 150 245
37 2 89 100 150 245
37 2 90 100 150 245
37 2 91 100 150 245
37 2 92 100 150 245
37 2 93 100 150 245
37 2 94 100 150 245
37 2 95 100 150 245
37 2 96 100 150 245
37 2 104 100 150 245
37 2 105 100 150 245
37 2 113 100 150 245
37 3 0 100 150 245
37 3 1 100 150 245
37 3 2 100 150 245
37 3 3 100 150 245
37 3 4 100 150 245
37 3 5 100 150 245
37 3 6 100 150 245
37 3 7 100 150 245
37 3 8 100 150 245
37 3 9 100 150 245
37 3 10 100 150 245
37 3 11 100 150 245
37 3 12 100 150 245
37 3 13 100 150 245
37 3 14 100 150 245
37 3 15 100 150 245
37 3 16 100 150 245
37 3 17 100 150 245
37 3 18 100 150 245
37 3 19 100 150 245
37 3 20 100 150 245
37 3 21 100 150 245
37 3 22 100 150 245
37 3 23 100 150 245
37 3 24 100 150 245
37 3 25 100 150 245
37 3 26 100 150 245
37 3 27 100 150 245
37 3 28 100 150 245
37 3 29 100 150 245
37 3 30 100 150 245
37 3 31 100 150 245
37 3 32 100 150 245
37 3 33 100 150 245
37 3 34 100 150 245
37 3 35 100 150 245
37 3 36 100 150 245
37 3 37 100 150 245
37 3 38 100 150 245
37 3 39 100 150 245
37 3 40 100 150 245
37 3 41 100 150 245
37 3 42 100 150 245
37 3 43 100 150 245
37 3 44 100 150 245
37 3 45 100 150 245
37 3 46 100 150 245
37 3 48 100 150 245
37 3 49 100 150 245
37 3 50 100 150 245
37 3 51 100 150 245
37 3 52 100 150 245
37 3 53 100 150 245
37 3 56 100 150 245
37 3 57 100 150 245
37 3 58 100 150 245
37 3 59 100 150 245
37 3 63 100 150 245
37 3 64 100 150 245
37 3 65 100 150 245
37 3 66 100 150 245
37 3 67 100 150 245
37 3 68 100 150 245
37 3 69 100 150 245
37 3 70 100 150 245
37 3 71 100 150 245
37 3 72 100 150 245
37 3 73 100 150 245
37 3 74 100 150 245
37 3 76 100 150 245
37 3 77 100 150 245
37 3 78 100 150 245
37 3 79 100 150 245
37 3 80 100 150 245
37 3 81 100 150 245
37 3 82 100 150 245
37 3 83 100 150 245
37 3 84 100 150 245
37 3 85 100 150 245
37 3 86 100 150 245
37 3 87 100 150 245
37 3 88 100 150 245
37 3 89 100 150 245
37 3 90 100 150 245
37 3 91 100 150 245
37 3 92 100 150 245
37 3 93 100 150 245
37 3 94 100 150 245
37 3 95 100 150 245
37 3 96 100 150 245
37 3 97 100 150 245
37 3 99 100 150 245
37 3 100 100 150 245
37 3 104 100 150 245
37 3 108 100 150 245
37 3 109 100 150 245
37 3 110 100 150 245
37 3 111 100 150 245
37 3 112 100 150 245
37 3 113 100 150 245
37 3 114 100 150 245
37 4 0 100 150 245
37 4 1 100 150 245
37 4 2 100 150 245
37 4 3 100 150 245
37 4 4 100 150 245
37 4 5 100 150 245
37 4 6 100 150 245
37 4 7 100 150 245
37 4 8 100 150 245
37 4 9 100 150 245
37 4 10 100 150 245
37 4 11 100 150 245
37 4 12 100 150 245
37 4 13 100 150 245
37 4 14 100 150 245
37 4 15 100 150 245
37 4 16 100 150 245
37 4 17 100 150 245
37 4 18 100 150 245
37 4 19 100 150 245
37 4 20 100 150 245
37 4 21 100 150 245
37 4 22 100 150 245
37 4 23 100 150 245
37 4 24 100 150 245
37 4 25 100 150 245
37 4 26 100 150 245
37 4 27 100 150 245
37 4 28 100 150 245
37 4 29 100 150 245
37 4 30 100 150 245
37 4 31 100 150 245
37 4 32 100 150 245
37 4 33 100 150 245
37 4 34 100 150 245
37 4 35 100 150 245
37 4 36 100 150 245
37 4 37 100 150 245
37 4 38 100 150 245
37 4 39 100 150 245
37 4 40 100 150 245
37 4 41 100 150 245
37 4 42 100 150 245
37 4 43 100 150 245
37 4 44 100 150 245
37 4 45 100 150 245
37 4 46 100 150 245
37 4 47 100 150 245
37 4 48 100 150 245
37 4 49 100 150 245
37 4 50 100 150 245
37 4 51 100 150 245
37 4 52 100 150 245
37 4 53 100 150 245
37 4 56 100 150 245
37 4 57 100 150 245
37 4 58 100 150 245
37 4 59 100 150 245
37 4 60 100 150 245
37 4 61 100 150 245
37 4 62 100 150 245
37 4 63 100 150 245
37 4 64 100 150 245
37 4 65 100 150 245
37 4 66 100 150 245
37 4 67 100 150 245
37 4 68 100 150 245
37 4 69 100 150 245
37 4 70 100 150 245
37 4 71 100 150 245
37 4 72 100 150 245
37 4 73 100 150 245
37 4 74 100 150 245
37 4 75 100 150 245
37 4 76 100 150 245
37 4 77 100 150 245
37 4 78 100 150 245
37 4 79 100 150 245
37 4 80 100 150 245
37 4 81 100 150 245
37 4 82 100 150 245
37 4 83 100 150 245
37 4 84 100 150 245
37 4 85 100 150 245
37 4 86 100 150 245
37 4 87 100 150 245
37 4 88 100 150 245
37 4 89 100 150 245
37 4 90 100 150 245
37 4 91 100 150 245
37 4 92 100 150 245
37 4 93 100 150 245
37 4 94 100 150 245
37 4 95 100 150 245
37 4 96 100 150 245
37 4 97 100 150 245
37 4 100 100 150 245
37 4 104 100 150 245
37 4 105 100 150 245
37 4 106 100 150 245
37 4 107 100 150 245
37 4 108 100 150 245
37 4 109 100 150 245
37 4 110 100 150 245
37 4 111 100 150 245
37 4 112 100 150 245
37 4 113 100 150 245
37 4 114 100 150 245
37 5 0 100 150 245
37 5 1 100 150 245
37 5 2 100 150 245
37 5 3 100 150 245
37 5 4 100 150 245
37 5 5 100 150 245
37 5 6 100 150 245
37 5 7 100 150 245
37 5 8 100 150 245
37 5 9 100 150 245
37 5 10 100 150 245
37 5 11 100 150 245
37 5 12 100 150 245
37 5 13 100 150 245
37 5 14 100 150 245
37 5 15 100 150 245
37 5 16 100 150 245
37 5 17 100 150 245
37 5 18 100 150 245
37 5 19 100 150 245
37 5 20 100 150 245
37 5 21 100 150 245
37 5 22 100 150 245
37 5 23 100 150 245
37 5 24 100 150 245
37 5 25 100 150 245
37 5 26 100 150 245
37 5 27 100 150 245
37 5 28 100 150 245
37 5 29 100 150 245
37 5 30 100 150 245
37 5 31 100 150 245
37 5 32 100 150 245
37 5 33 100 150 245
37 5 34 100 150 245
37 5 35 100 150 245
37 5 36 100 150 245
37 5 37 100 150 245
37 5 38 100 150 245
37 5 39 100 150 245
37 5 40 100 150 245
37 5 41 100 150 245
37 5 42 100 150 245
37 5 43 100 150 245
37 5 44 100 150 245
37 5 45 100 150 245
37 5 46 100 150 245
37 5 47 100 150 245
37 5 48 100 150 245
37 5 49 100 150 245
37 5 50 100 150 245
37 5 51 100 150 245
37 5 52 100 150 245
37 5 53 100 150 245
37 5 54 100 150 245
37 5 55 100 150 245
37 5 56 100 150 245
37 5 57 100 150 245
37 5 58 100 150 245
37 5 59 100 150 245
37 5 60 100 150 245
37 5 61 100 150 245
37 5 62 100 150 245
37 5 63 100 150 245
37 5 64 100 150 245
37 5 65 100 150 245
37 5 66 100 150 245
37 5 67 100 150 245
37 5 68 100 150 245
37 5 69 100 150 245
37 5 70 100 150 245
37 5 71 100 150 245
37 5 72 100 150 245
37 5 73 100 150 245
37 5 74 100 150 245
37 5 75 100 150 245
37 5 76 100 150 245
37 5 77 100 150 245
37 5 78 100 150 245
37 5 79 100 150 245
37 5 80 100 150 245
37 5 81 100 150 245
37 5 82 100 150 245
37 5 83 100 150 245
37 5 84 100 150 245
37 5 85 100 150 245
37 5 86 100 150 245
37 5 87 100 150 245
37 5 88 100 150 245
37 5 89 100 150 245
37 5 90 100 150 245
37 5 91 100 150 245
37 5 92 100 150 245
37 5 93 100 150 245
37 5 94 100 150 245
37 5 95 100 150 245
37 5 96 100 150 245
37 5 97 100 150 245
37 5 98 100 150 245
37 5 99 100 150 245
37 5 100 100 150 245
37 5 101 100 150 245
37 5 102 100 150 245
37 5 103 100 150 245
37 5 104 100 150 245
37 5 105 100 150 245
37 5 106 100 150 245
37 5 107 100 150 245
37 5 108 100 150 245
37 5 109 100 150 245
37 5 110 100 150 245
37 5 111 100 150 245
37 5 112 100 150 245
37 5 113 100 150 245
37 5 114 100 150 245
37 6 0 100 150 245
37 6 1 100 150 245
37 6 2 100 150 245
37 6 3 100 150 245
37 6 4 100 150 245
37 6 5 100 150 245
37 6 6 100 150 245
37 6 7 100 150 245
37 6 8 100 150 245
37 6 9 100 150 245
37 6 10 100 150 245
37 6 11 100 150 245
37 6 12 100 150 245
37 6 13 100 150 245
37 6 14 100 150 245
37 6 15 100 150 245
37 6 16 100 150 245
37 6 17 100 150 245
37 6 18 100 150 245
37 6 19 100 150 245
37 6 20 100 150 245
37 6 21 100 150 245
37 6 22 100 150 245
37 6 23 100 150 245
37 6 24 100 150 245
37 6 25 100 150 245
37 6 26 100 150 245
37 6 27 100 150 245
37 6 28 100 150 245
37 6 29 100 150 245
37 6 30 100 150 245
37 6 31 100 150 245
37 6 32 100 150 245
37 6 33 100 150 245
37 6 34 100 150 245
37 6 35 100 150 245
37 6 36 100 150 245
37 6 37 100 150 245
37 6 38 100 150 245
37 6 39 100 150 245
37 6 40 100 150 245
37 6 41 100 150 245
37 6 42 100 150 245
37 6 43 100 150 245
37 6 44 100 150 245
37 6 45 100 150 245
37 6 46 100 150 245
37 6 47 100 150 245
37 6 48 100 150 245
37 6 49 100 150 245
37 6 50 100 150 245
37 6 51 100 150 245
37 6 52 100 150 245
37 6 53 100 150 245
37 6 54 100 150 245
37 6 55 100 150 245
37 6 56 100 150 245
37 6 57 100 150 245
37 6 58 100 150 245
37 6 59 100 150 245
37 6 60 100 150 245
37 6 61 100 150 245
37 6 62 100 150 245
37 6 63 100 150 245
37 6 64 100 150 245
37 6 65 100 150 245
37 6 66 100 150 245
37 6 67 100 150 245
37 6 68 100 150 245
37 6 69 100 150 245
37 6 70 100 150 245
37 6 71 100 150 245
37 6 72 100 150 245
37 6 73 100 150 245
37 6 74 100 150 245
37 6 75 100 150 245
37 6 76 100 150 245
37 6 77 100 150 245
37 6 78 100 150 245
37 6 79 100 150 245
37 6 80 100 150 245
37 6 81 100 150 245
37 6 82 100 150 245
37 6 83 100 150 245
37 6 84 100 150 245
37 6 85 100 150 245
37 6 86 100 150 245
37 6 87 100 150 245
37 6 88 100 150 245
37 6 89 100 150 245
37 6 90 100 150 245
37 6 91 100 150 245
37 6 92 100 150 245
37 6 93 100 150 245
37 6 94 100 150 245
37 6 95 100 150 245
37 6 96 100 150 245
37 6 97 100 150 245
37 6 98 100 150 245
37 6 99 100 150 245
37 6 100 100 150 245
37 6 101 100 150 245
37 6 102 100 150 245
37 6 103 100 150 245
37 6 104 100 150 245
37 6 105 100 150 245
37 6 106 100 150 245
37 6 107 100 150 245
37 6 108 100 150 245
37 6 109 100 150 245
37 6 110 100 150 245
37 6 111 100 150 245
37 6 112 100 150 245
37 6 113 100 150 245
37 6 114 100 150 245
37 7 0 100 150 245
37 7 1 100 150 245
37 7 2 100 150 245
37 7 3 100 150 245
37 7 4 100 150 245
37 7 5 100 150 245
37 7 6 100 150 245
37 7 7 100 150 245
37 7 8 100 150 245
37 7 9 100 150 245
37 7 10 100 150 245
37 7 11 100 150 245
37 7 12 100 150 245
37 7 13 100 150 245
37 7 14 100 150 245
37 7 15 100 150 245
37 7 16 100 150 245
37 7 17 100 150 245
37 7 18 100 150 245
37 7 19 100 150 245
37 7 20 100 150 245
37 7 21 100 150 245
37 7 22 100 150 245
37 7 23 100 150 245
37 7 24 100 150 245
37 7 25 100 150 245
37 7 26 100 150 245
37 7 27 100 150 245
37 7 28 100 150 245
37 7 29 100 150 245
37 7 30 100 150 245
37 7 31 100 150 245
37 7 32 100 150 245
37 7 33 100 150 245
37 7 34 100 150 245
37 7 35 100 150 245
37 7 36 100 150 245
37 7 37 100 150 245
37 7 38 100 150 245
37 7 39 100 150 245
37 7 40 100 150 245
37 7 41 100 150 245
37 7 42 100 150 245
37 7 43 100 150 245
37 7 44 100 150 245
37 7 45 100 150 245
37 7 46 100 150 245
37 7 47 100 150 245
37 7 48 100 150 245
37 7 49 100 150 245
37 7 50 100 150 245
37 7 51 100 150 245
37 7 52 100 150 245
37 7 53 100 150 245
37 7 54 100 150 245
37 7 55 100 150 245
37 7 56 100 150 245
37 7 57 100 150 245
37 7 58 100 150 245
37 7 59 100 150 245
37 7 60 100 150 245
37 7 61 100 150 245
37 7 62 100 150 245
37 7 63 100 150 245
37 7 64 100 150 245
37 7 65 100 150 245
37 7 66 100 150 245
37 7 67 100 150 245
37 7 68 100 150 245
37 7 69 100 150 245
37 7 70 100 150 245
37 7 71 100 150 245
37 7 72 100 150 245
37 7 73 100 150 245
37 7 74 100 150 245
37 7 75 100 150 245
37 7 76 100 150 245
37 7 77 100 150 245
37 7 78 100 150 245
37 7 79 100 150 245
37 7 80 100 150 245
37 7 81 100 150 245
37 7 82 100 150 245
37 7 83 100 150 245
37 7 84 100 150 245
37 7 85 100 150 245
37 7 86 100 150 245
37 7 87 100 150 245
37 7 88 100 150 245
37 7 89 100 150 245
37 7 90 100 150 245
37 7 91 100 150 245
37 7 92 100 150 245
37 7 93 100 150 245
37 7 94 100 150 245
37 7 95 100 150 245
37 7 96 100 150 245
37 7 97 100 150 245
37 7 98 100 150 245
37 7 99 100 150 245
37 7 100 100 150 245
37 7 101 100 150 245
37 7 102 100 150 245
37 7 103 100 150 245
37 7 104 100 150 245
37 7 105 100 150 245
37 7 106 100 150 245
37 7 107 100 150 245
37 7 108 100 150 245
37 7 109 100 150 245
37 7 110 100 150 245
37 7 111 100 150 245
37 7 112 100 150 245
37 7 113 100 150 245
37 7 114 100 150 245
37 8 0 100 150 245
37 8 1 100 150 245
37 8 2 100 150 245
37 8 3 100 150 245
37 8 4 100 150 245
37 8 5 100 150 245
37 8 6 100 150 245
37 8 7 100 150 245
37 8 8 100 150 245
37 8 9 100 150 245
37 8 10 100 150 245
37 8 11 100 150 245
37 8 12 100 150 245
37 8 13 100 150 245
37 8 14 100 150 245
37 8 15 100 150 245
37 8 16 100 150 245
37 8 17 100 150 245
37 8 18 100 150 245
37 8 19 100 150 245
37 8 20 100 150 245
37 8 21 100 150 245
37 8 22 100 150 245
37 8 23 100 150 245
37 8 24 100 150 245
37 8 25 100 150 245
37 8 26 100 150 245
37 8 27 100 150 245
37 8 28 100 150 245
37 8 29 100 150 245
37 8 30 100 150 245
37 8 31 100 150 245
37 8 32 100 150 245
37 8 33 100 150 245
37 8 34 100 150 245
37 8 35 100 150 245
37 8 36 100 150 245
37 8 37 100 150 245
37 8 38 100 150 245
37 8 39 100 150 245
37 8 40 100 150 245
37 8 41 100 150 245
37 8 42 100 150 245
37 8 43 100 150 245
37 8 44 100 150 245
37 8 45 100 150 245
37 8 46 100 150 245
37 8 47 100 150 245
37 8 48 100 150 245
37 8 49 100 150 245
37 8 50 100 150 245
37 8 51 100 150 245
37 8 52 100 150 245
37 8 53 100 150 245
37 8 54 100 150 245
37 8 55 100 150 245
37 8 56 100 150 245
37 8 57 100 150 245
37 8 58 100 150 245
37 8 59 100 150 245
37 8 60 100 150 245
37 8 61 100 150 245
37 8 62 100 150 245
37 8 63 100 150 245
37 8 64 100 150 245
37 8 65 100 150 245
37 8 66 100 150 245
37 8 67 100 150 245
37 8 68 100 150 245
37 8 69 100 150 245
37 8 70 100 150 245
37 8 71 100 150 245
37 8 72 100 150 245
37 8 73 100 150 245
37 8 74 100 150 245
37 8 75 100 150 245
37 8 76 100 150 245
37 8 77 100 150 245
37 8 78 100 150 245
37 8 79 100 150 245
37 8 80 100 150 245
37 8 81 100 150 245
37 8 82 100 150 245
37 8 83 100 150 245
37 8 84 100 150 245
37 8 85 100 150 245
37 8 86 100 150 245
37 8 87 100 150 245
37 8 88 100 150 245
37 8 89 100 150 245
37 8 90 100 150 245
37 8 91 100 150 245
37 8 92 100 150 245
37 8 93 100 150 245
37 8 94 100 150 245
37 8 95 100 150 245
37 8 96 100 150 245
37 8 97 100 150 245
37 8 98 100 150 245
37 8 99 100 150 245
37 8 100 100 150 245
37 8 101 100 150 245
37 8 102 100 150 245
37 8 103 100 150 245
37 8 104 100 150 245
37 8 105 100 150 245
37 8 106 100 150 245
37 8 107 100 150 245
37 8 108 100 150 245
37 8 109 100 150 245
37 8 110 100 150 245
37 8 111 100 150 245
37 8 112 100 150 245
37 8 113 100 150 245
37 8 114 100 150 245
37 9 0 100 150 245
37 9 1 100 150 245
37 9 2 100 150 245
37 9 3 100 150 245
37 9 4 100 150 245
37 9 5 100 150 245
37 9 6 100 150 245
37 9 7 100 150 245
37 9 8 100 150 245
37 9 9 100 150 245
37 9 10 100 150 245
37 9 11 100 150 245
37 9 12 100 150 245
37 9 13 100 150 245
37 9 14 100 150 245
37 9 15 100 150 245
37 9 16 100 150 245
37 9 17 100 150 245
37 9 18 100 150 245
37 9 19 100 150 245
37 9 20 100 150 245
37 9 21 100 150 245
37 9 22 100 150 245
37 9 23 100 150 245
37 9 24 100 150 245
37 9 25 100 150 245
37 9 26 100 150 245
37 9 27 100 150 245
37 9 28 100 150 245
37 9 29 100 150 245
37 9 30 100 150 245
37 9 31 100 150 245
37 9 32 100 150 245
37 9 33 100 150 245
37 9 34 100 150 245
37 9 35 100 150 245
37 9 36 100 150 245
37 9 37 100 150 245
37 9 38 100 150 245
37 9 39 100 150 245
37 9 40 100 150 245
37 9 41 100 150 245
37 9 42 100 150 245
37 9 43 100 150 245
37 9 44 100 150 245
37 9 45 100 150 245
37 9 46 100 150 245
37 9 47 100 150 245
37 9 48 100 150 245
37 9 49 100 150 245
37 9 50 100 150 245
37 9 51 100 150 245
37 9 52 100 150 245
37 9 53 100 150 245
37 9 54 100 150 245
37 9 55 100 150 245
37 9 56 100 150 245
37 9 57 100 150 245
37 9 58 100 150 245
37 9 59 100 150 245
37 9 60 100 150 245
37 9 61 100 150 245
37 9 62 100 150 245
37 9 63 100 150 245
37 9 64 100 150 245
37 9 65 100 150 245
37 9 66 100 150 245
37 9 67 100 150 245
37 9 68 100 150 245
37 9 69 100 150 245
37 9 70 100 150 245
37 9 71 100 150 245
37 9 72 100 150 245
37 9 73 100 150 245
37 9 74 100 150 245
37 9 75 100 150 245
37 9 76 100 150 245
37 9 77 100 150 245
37 9 78 100 150 245
37 9 79 100 150 245
37 9 80 100 150 245
37 9 81 100 150 245
37 9 82 100 150 245
37 9 83 100 150 245
37 9 84 100 150 245
37 9 85 100 150 245
37 9 86 100 150 245
37 9 87 100 150 245
37 9 88 100 150 245
37 9 89 100 150 245
37 9 90 100 150 245
37 9 91 100 150 245
37 9 92 100 150 245
37 9 93 100 150 245
37 9 94 100 150 245
37 9 95 100 150 245
37 9 96 100 150 245
37 9 97 100 150 245
37 9 98 100 150 245
37 9 99 100 150 245
37 9 100 100 150 245
37 9 101 100 150 245
37 9 102 100 150 245
37 9 103 100 150 245
37 9 104 100 150 245
37 9 105 100 150 245
37 9 106 100 150 245
37 9 107 100 150 245
37 9 108 100 150 245
37 9 109 100 150 245
37 9 110 100 150 245
37 9 111 100 150 245
37 9 112 100 150 245
37 9 113 100 150 245
37 9 114 100 150 245
37 10 0 100 150 245
37 10 1 100 150 245
37 10 2 100 150 245
37 10 3 100 150 245
37 10 4 100 150 245
37 10 5 100 150 245
37 10 6 100 150 245
37 10 7 100 150 245
37 10 8 100 150 245
37 10 9 100 150 245
37 10 10 100 150 245
37 10 11 100 150 245
37 10 12 100 150 245
37 10 13 100 150 245
37 10 14 100 150 245
37 10 15 100 150 245
37 10 16 100 150 245
37 10 17 100 150 245
37 10 18 100 150 245
37 10 19 100 150 245
37 10 20 100 150 245
37 10 21 100 150 245
37 10 22 100 150 245
37 10 23 100 150 245
37 10 24 100 150 245
37 10 25 100 150 245
37 10 26 100 150 245
37 10 27 100 150 245
37 10 28 100 150 245
37 10 29 100 150 245
37 10 30 100 150 245
37 10 31 100 150 245
37 10 32 100 150 245
37 10 33 100 150 245
37 10 34 100 150 245
37 10 35 100 150 245
37 10 36 100 150 245
37 10 37 100 150 245
37 10 38 100 150 245
37 10 39 100 150 245
37 10 40 100 150 245
37 10 41 100 150 245
37 10 42 100 150 245
37 10 43 100 150 245
37 10 44 100 150 245
37 10 45 100 150 245
37 10 46 100 150 245
37 10 47 100 150 245
37 10 48 100 150 245
37 10 49 100 150 245
37 10 50 100 150 245
37 10 51 100 150 245
37 10 52 100 150 245
37 10 53 100 150 245
37 10 54 100 150 245
37 10 55 100 150 245
37 10 56 100 150 245
37 10 57 100 150 245
37 10 58 100 150 245
37 10 59 100 150 245
37 10 60 100 150 245
37 10 61 100 150 245
37 10 62 100 150 245
37 10 63 100 150 245
37 10 64 100 150 245
37 10 65 100 150 245
37 10 66 100 150 245
37 10 67 100 150 245
37 10 68 100 150 245
37 10 69 100 150 245
37 10 70 100 150 245
37 10 71 100 150 245
37 10 72 100 150 245
37 10 73 100 150 245
37 10 74 100 150 245
37 10 75 100 150 245
37 10 76 100 150 245
37 10 77 100 150 245
37 10 78 100 150 245
37 10 79 100 150 245
37 10 80 100 150 245
37 10 81 100 150 245
37 10 82 100 150 245
37 10 83 100 150 245
37 10 84 100 150 245
37 10 85 100 150 245
37 10 86 100 150 245
37 10 87 100 150 245
37 10 88 100 150 245
37 10 89 100 150 245
37 10 90 100 150 245
37 10 91 100 150 245
37 10 92 100 150 245
