ply
format ascii 1.0
element vertex 2392
property float x
property float y
property float z
property uchar red
property uchar green
property uchar blue
end_header
27 2 24 100 150 245
27 2 25 100 150 245
27 2 26 100 150 245
27 2 27 100 150 245
27 2 28 100 150 245
27 2 29 100 150 245
27 2 30 100 150 245
27 2 31 100 150 245
27 2 32 100 150 245
27 2 33 100 150 245
27 2 34 100 150 245
27 2 35 100 150 245
27 2 36 100 150 245
27 2 37 100 150 245
27 2 38 100 150 245
27 2 41 100 150 245
27 2 42 100 150 245
27 2 60 100 150 245
27 2 61 100 150 245
27 2 62 100 150 245
27 2 63 100 150 245
27 3 24 100 150 245
27 3 28 100 150 245
27 3 29 100 150 245
27 3 30 100 150 245
27 3 33 100 150 245
27 3 34 100 150 245
27 3 35 100 150 245
27 3 36 100 150 245
27 3 37 100 150 245
27 3 38 100 150 245
27 3 41 100 150 245
27 3 42 100 150 245
27 3 60 100 150 245
27 3 61 100 150 245
27 3 62 100 150 245
27 4 23 100 150 245
27 4 24 100 150 245
27 4 35 100 150 245
27 5 35 100 150 245
28 0 21 100 150 245
28 0 22 100 150 245
28 0 23 100 150 245
28 0 24 100 150 245
28 0 25 100 150 245
28 0 26 100 150 245
28 0 27 100 150 245
28 0 28 100 150 245
28 0 29 100 150 245
28 0 30 100 150 245
28 0 31 100 150 245
28 0 32 100 150 245
28 0 33 100 150 245
28 0 34 100 150 245
28 0 35 100 150 245
28 0 36 100 150 245
28 0 37 100 150 245
28 0 38 100 150 245
28 0 39 100 150 245
28 0 42 100 150 245
28 0 43 100 150 245
28 0 56 100 150 245
28 0 57 100 150 245
28 0 58 100 150 245
28 0 59 100 150 245
28 0 60 100 150 245
28 0 61 100 150 245
28 0 62 100 150 245
28 0 63 100 150 245
28 1 21 100 150 245
28 1 22 100 150 245
28 1 23 100 150 245
28 1 24 100 150 245
28 1 25 100 150 245
28 1 26 100 150 245
28 1 27 100 150 245
28 1 28 100 150 245
28 1 29 100 150 245
28 1 30 100 150 245
28 1 31 100 150 245
28 1 32 100 150 245
28 1 33 100 150 245
28 1 34 100 150 245
28 1 35 100 150 245
28 1 36 100 150 245
28 1 37 100 150 245
28 1 38 100 150 245
28 1 39 100 150 245
28 1 56 100 150 245
28 1 57 100 150 245
28 1 61 100 150 245
28 1 62 100 150 245
28 1 63 100 150 245
28 2 21 100 150 245
28 2 22 100 150 245
28 2 23 100 150 245
28 2 24 100 150 245
28 2 25 100 150 245
28 2 26 100 150 245
28 2 27 100 150 245
28 2 28 100 150 245
28 2 29 100 150 245
28 2 30 100 150 245
28 2 31 100 150 245
28 2 32 100 150 245
28 2 33 100 150 245
28 2 34 100 150 245
28 2 35 100 150 245
28 2 36 100 150 245
28 2 37 100 150 245
28 2 38 100 150 245
28 2 39 100 150 245
28 2 61 100 150 245
28 2 62 100 150 245
28 2 63 100 150 245
28 3 22 100 150 245
28 3 27 100 150 245
28 3 28 100 150 245
28 3 29 100 150 245
28 3 30 100 150 245
28 3 34 100 150 245
28 3 35 100 150 245
28 3 36 100 150 245
28 3 37 100 150 245
28 3 38 100 150 245
28 3 42 100 150 245
28 3 60 100 150 245
28 3 61 100 150 245
28 3 62 100 150 245
28 3 63 100 150 245
28 4 23 100 150 245
28 4 24 100 150 245
28 4 35 100 150 245
29 0 19 100 150 245
29 0 20 100 150 245
29 0 21 100 150 245
29 0 22 100 150 245
29 0 23 100 150 245
29 0 24 100 150 245
29 0 25 100 150 245
29 0 26 100 150 245
29 0 27 100 150 245
29 0 28 100 150 245
29 0 29 100 150 245
29 0 30 100 150 245
29 0 31 100 150 245
29 0 32 100 150 245
29 0 33 100 150 245
29 0 34 100 150 245
29 0 35 100 150 245
29 0 36 100 150 245
29 0 37 100 150 245
29 0 38 100 150 245
29 0 39 100 150 245
29 0 40 100 150 245
29 0 43 100 150 245
29 0 44 100 150 245
29 0 57 100 150 245
29 0 58 100 150 245
29 0 59 100 150 245
29 0 60 100 150 245
29 0 61 100 150 245
29 0 62 100 150 245
29 0 63 100 150 245
29 1 19 100 150 245
29 1 20 100 150 245
29 1 21 100 150 245
29 1 22 100 150 245
29 1 23 100 150 245
29 1 24 100 150 245
29 1 25 100 150 245
29 1 26 100 150 245
29 1 27 100 150 245
29 1 28 100 150 245
29 1 29 100 150 245
29 1 30 100 150 245
29 1 31 100 150 245
29 1 32 100 150 245
29 1 33 100 150 245
29 1 34 100 150 245
29 1 35 100 150 245
29 1 36 100 150 245
29 1 37 100 150 245
29 1 38 100 150 245
29 1 39 100 150 245
29 1 40 100 150 245
29 1 58 100 150 245
29 1 59 100 150 245
29 1 63 100 150 245
29 2 19 100 150 245
29 2 20 100 150 245
29 2 21 100 150 245
29 2 22 100 150 245
29 2 23 100 150 245
29 2 24 100 150 245
29 2 25 100 150 245
29 2 26 100 150 245
29 2 27 100 150 245
29 2 28 100 150 245
29 2 29 100 150 245
29 2 30 100 150 245
29 2 31 100 150 245
29 2 32 100 150 245
29 2 33 100 150 245
29 2 34 100 150 245
29 2 35 100 150 245
29 2 36 100 150 245
29 2 37 100 150 245
29 2 38 100 150 245
29 2 39 100 150 245
29 2 40 100 150 245
29 2 43 100 150 245
29 2 62 100 150 245
29 2 63 100 150 245
29 3 20 100 150 245
29 3 22 100 150 245
29 3 32 100 150 245
29 3 34 100 150 245
29 3 35 100 150 245
29 3 36 100 150 245
29 3 37 100 150 245
29 3 38 100 150 245
29 3 39 100 150 245
29 3 42 100 150 245
29 3 43 100 150 245
29 3 62 100 150 245
29 3 63 100 150 245
29 4 24 100 150 245
29 4 35 100 150 245
29 4 36 100 150 245
30 0 17 100 150 245
30 0 18 100 150 245
30 0 19 100 150 245
30 0 20 100 150 245
30 0 21 100 150 245
30 0 22 100 150 245
30 0 23 100 150 245
30 0 24 100 150 245
30 0 25 100 150 245
30 0 26 100 150 245
30 0 27 100 150 245
30 0 28 100 150 245
30 0 29 100 150 245
30 0 30 100 150 245
30 0 31 100 150 245
30 0 32 100 150 245
30 0 33 100 150 245
30 0 34 100 150 245
30 0 35 100 150 245
30 0 36 100 150 245
30 0 37 100 150 245
30 0 38 100 150 245
30 0 39 100 150 245
30 0 40 100 150 245
30 0 41 100 150 245
30 0 43 100 150 245
30 0 44 100 150 245
30 0 45 100 150 245
30 0 58 100 150 245
30 0 59 100 150 245
30 0 60 100 150 245
30 0 61 100 150 245
30 0 62 100 150 245
30 0 63 100 150 245
30 1 18 100 150 245
30 1 19 100 150 245
30 1 20 100 150 245
30 1 21 100 150 245
30 1 22 100 150 245
30 1 23 100 150 245
30 1 24 100 150 245
30 1 25 100 150 245
30 1 26 100 150 245
30 1 27 100 150 245
30 1 28 100 150 245
30 1 29 100 150 245
30 1 30 100 150 245
30 1 31 100 150 245
30 1 32 100 150 245
30 1 33 100 150 245
30 1 34 100 150 245
30 1 35 100 150 245
30 1 36 100 150 245
30 1 37 100 150 245
30 1 38 100 150 245
30 1 39 100 150 245
30 1 40 100 150 245
30 1 41 100 150 245
30 1 58 100 150 245
30 1 59 100 150 245
30 1 60 100 150 245
30 1 61 100 150 245
30 2 18 100 150 245
30 2 19 100 150 245
30 2 20 100 150 245
30 2 21 100 150 245
30 2 22 100 150 245
30 2 23 100 150 245
30 2 24 100 150 245
30 2 25 100 150 245
30 2 26 100 150 245
30 2 27 100 150 245
30 2 28 100 150 245
30 2 29 100 150 245
30 2 30 100 150 245
30 2 31 100 150 245
30 2 32 100 150 245
30 2 33 100 150 245
30 2 34 100 150 245
30 2 35 100 150 245
30 2 36 100 150 245
30 2 37 100 150 245
30 2 38 100 150 245
30 2 39 100 150 245
30 2 40 100 150 245
30 2 41 100 150 245
30 2 42 100 150 245
30 2 43 100 150 245
30 3 18 100 150 245
30 3 19 100 150 245
30 3 20 100 150 245
30 3 26 100 150 245
30 3 29 100 150 245
30 3 30 100 150 245
30 3 31 100 150 245
30 3 32 100 150 245
30 3 36 100 150 245
30 3 37 100 150 245
30 3 38 100 150 245
30 3 39 100 150 245
30 3 40 100 150 245
30 3 41 100 150 245
30 3 42 100 150 245
30 3 43 100 150 245
30 4 19 100 150 245
30 4 36 100 150 245
31 0 16 100 150 245
31 0 17 100 150 245
31 0 18 100 150 245
31 0 19 100 150 245
31 0 20 100 150 245
31 0 21 100 150 245
31 0 22 100 150 245
31 0 23 100 150 245
31 0 24 100 150 245
31 0 25 100 150 245
31 0 26 100 150 245
31 0 27 100 150 245
31 0 28 100 150 245
31 0 29 100 150 245
31 0 30 100 150 245
31 0 31 100 150 245
31 0 32 100 150 245
31 0 33 100 150 245
31 0 34 100 150 245
31 0 35 100 150 245
31 0 36 100 150 245
31 0 37 100 150 245
31 0 38 100 150 245
31 0 39 100 150 245
31 0 40 100 150 245
31 0 41 100 150 245
31 0 44 100 150 245
31 0 45 100 150 245
31 0 58 100 150 245
31 0 59 100 150 245
31 0 60 100 150 245
31 0 61 100 150 245
31 0 62 100 150 245
31 0 63 100 150 245
31 1 16 100 150 245
31 1 17 100 150 245
31 1 18 100 150 245
31 1 19 100 150 245
31 1 21 100 150 245
31 1 22 100 150 245
31 1 23 100 150 245
31 1 24 100 150 245
31 1 25 100 150 245
31 1 26 100 150 245
31 1 27 100 150 245
31 1 28 100 150 245
31 1 29 100 150 245
31 1 30 100 150 245
31 1 31 100 150 245
31 1 32 100 150 245
31 1 33 100 150 245
31 1 34 100 150 245
31 1 35 100 150 245
31 1 36 100 150 245
31 1 37 100 150 245
31 1 38 100 150 245
31 1 39 100 150 245
31 1 40 100 150 245
31 1 41 100 150 245
31 1 45 100 150 245
31 1 59 100 150 245
31 1 60 100 150 245
31 1 61 100 150 245
31 1 62 100 150 245
31 2 16 100 150 245
31 2 17 100 150 245
31 2 18 100 150 245
31 2 19 100 150 245
31 2 20 100 150 245
31 2 21 100 150 245
31 2 22 100 150 245
31 2 23 100 150 245
31 2 24 100 150 245
31 2 25 100 150 245
31 2 26 100 150 245
31 2 27 100 150 245
31 2 28 100 150 245
31 2 29 100 150 245
31 2 30 100 150 245
31 2 31 100 150 245
31 2 32 100 150 245
31 2 33 100 150 245
31 2 34 100 150 245
31 2 35 100 150 245
31 2 36 100 150 245
31 2 37 100 150 245
31 2 38 100 150 245
31 2 39 100 150 245
31 2 40 100 150 245
31 2 41 100 150 245
31 2 42 100 150 245
31 2 43 100 150 245
31 3 16 100 150 245
31 3 17 100 150 245
31 3 18 100 150 245
31 3 19 100 150 245
31 3 20 100 150 245
31 3 21 100 150 245
31 3 28 100 150 245
31 3 29 100 150 245
31 3 30 100 150 245
31 3 31 100 150 245
31 3 32 100 150 245
31 3 35 100 150 245
31 3 36 100 150 245
31 3 37 100 150 245
31 3 38 100 150 245
31 3 39 100 150 245
31 3 40 100 150 245
31 3 41 100 150 245
31 3 42 100 150 245
31 3 43 100 150 245
31 4 20 100 150 245
31 4 32 100 150 245
31 4 35 100 150 245
31 4 36 100 150 245
31 4 37 100 150 245
32 0 16 100 150 245
32 0 17 100 150 245
32 0 18 100 150 245
32 0 19 100 150 245
32 0 20 100 150 245
32 0 21 100 150 245
32 0 22 100 150 245
32 0 23 100 150 245
32 0 24 100 150 245
32 0 25 100 150 245
32 0 26 100 150 245
32 0 27 100 150 245
32 0 28 100 150 245
32 0 29 100 150 245
32 0 30 100 150 245
32 0 31 100 150 245
32 0 32 100 150 245
32 0 33 100 150 245
32 0 34 100 150 245
32 0 35 100 150 245
32 0 36 100 150 245
32 0 37 100 150 245
32 0 38 100 150 245
32 0 39 100 150 245
32 0 40 100 150 245
32 0 41 100 150 245
32 0 42 100 150 245
32 0 44 100 150 245
32 0 45 100 150 245
32 0 46 100 150 245
32 0 59 100 150 245
32 0 60 100 150 245
32 0 61 100 150 245
32 0 62 100 150 245
32 0 63 100 150 245
32 1 16 100 150 245
32 1 17 100 150 245
32 1 18 100 150 245
32 1 19 100 150 245
32 1 20 100 150 245
32 1 21 100 150 245
32 1 22 100 150 245
32 1 23 100 150 245
32 1 24 100 150 245
32 1 25 100 150 245
32 1 26 100 150 245
32 1 27 100 150 245
32 1 28 100 150 245
32 1 29 100 150 245
32 1 30 100 150 245
32 1 31 100 150 245
32 1 32 100 150 245
32 1 33 100 150 245
32 1 34 100 150 245
32 1 35 100 150 245
32 1 36 100 150 245
32 1 37 100 150 245
32 1 38 100 150 245
32 1 39 100 150 245
32 1 40 100 150 245
32 1 41 100 150 245
32 1 42 100 150 245
32 1 44 100 150 245
32 1 45 100 150 245
32 1 61 100 150 245
32 1 62 100 150 245
32 1 63 100 150 245
32 2 16 100 150 245
32 2 17 100 150 245
32 2 18 100 150 245
32 2 19 100 150 245
32 2 20 100 150 245
32 2 21 100 150 245
32 2 22 100 150 245
32 2 23 100 150 245
32 2 24 100 150 245
32 2 25 100 150 245
32 2 26 100 150 245
32 2 27 100 150 245
32 2 28 100 150 245
32 2 29 100 150 245
32 2 30 100 150 245
32 2 31 100 150 245
32 2 32 100 150 245
32 2 33 100 150 245
32 2 34 100 150 245
32 2 35 100 150 245
32 2 36 100 150 245
32 2 37 100 150 245
32 2 38 100 150 245
32 2 39 100 150 245
32 2 40 100 150 245
32 2 41 100 150 245
32 2 42 100 150 245
32 2 43 100 150 245
32 3 16 100 150 245
32 3 17 100 150 245
32 3 18 100 150 245
32 3 19 100 150 245
32 3 22 100 150 245
32 3 27 100 150 245
32 3 28 100 150 245
32 3 29 100 150 245
32 3 30 100 150 245
32 3 31 100 150 245
32 3 32 100 150 245
32 3 33 100 150 245
32 3 34 100 150 245
32 3 35 100 150 245
32 3 36 100 150 245
32 3 37 100 150 245
32 3 38 100 150 245
32 3 39 100 150 245
32 3 40 100 150 245
32 3 41 100 150 245
32 3 42 100 150 245
32 3 43 100 150 245
32 3 44 100 150 245
32 4 20 100 150 245
32 4 32 100 150 245
32 4 33 100 150 245
32 4 34 100 150 245
32 4 35 100 150 245
32 4 36 100 150 245
32 4 37 100 150 245
33 0 16 100 150 245
33 0 17 100 150 245
33 0 18 100 150 245
33 0 19 100 150 245
33 0 20 100 150 245
33 0 21 100 150 245
33 0 22 100 150 245
33 0 23 100 150 245
33 0 24 100 150 245
33 0 25 100 150 245
33 0 26 100 150 245
33 0 27 100 150 245
33 0 28 100 150 245
33 0 29 100 150 245
33 0 30 100 150 245
33 0 31 100 150 245
33 0 32 100 150 245
33 0 33 100 150 245
33 0 34 100 150 245
33 0 35 100 150 245
33 0 36 100 150 245
33 0 37 100 150 245
33 0 38 100 150 245
33 0 39 100 150 245
33 0 40 100 150 245
33 0 41 100 150 245
33 0 42 100 150 245
33 0 43 100 150 245
33 0 44 100 150 245
33 0 45 100 150 245
33 0 46 100 150 245
33 0 59 100 150 245
33 0 60 100 150 245
33 0 61 100 150 245
33 0 62 100 150 245
33 0 63 100 150 245
33 1 17 100 150 245
33 1 18 100 150 245
33 1 19 100 150 245
33 1 20 100 150 245
33 1 21 100 150 245
33 1 22 100 150 245
33 1 23 100 150 245
33 1 24 100 150 245
33 1 25 100 150 245
33 1 26 100 150 245
33 1 27 100 150 245
33 1 28 100 150 245
33 1 29 100 150 245
33 1 30 100 150 245
33 1 31 100 150 245
33 1 32 100 150 245
33 1 33 100 150 245
33 1 34 100 150 245
33 1 35 100 150 245
33 1 36 100 150 245
33 1 37 100 150 245
33 1 38 100 150 245
33 1 39 100 150 245
33 1 40 100 150 245
33 1 41 100 150 245
33 1 42 100 150 245
33 1 62 100 150 245
33 1 63 100 150 245
33 2 16 100 150 245
33 2 17 100 150 245
33 2 18 100 150 245
33 2 19 100 150 245
33 2 20 100 150 245
33 2 21 100 150 245
33 2 22 100 150 245
33 2 23 100 150 245
33 2 24 100 150 245
33 2 25 100 150 245
33 2 26 100 150 245
33 2 27 100 150 245
33 2 28 100 150 245
33 2 29 100 150 245
33 2 30 100 150 245
33 2 31 100 150 245
33 2 32 100 150 245
33 2 33 100 150 245
33 2 34 100 150 245
33 2 35 100 150 245
33 2 36 100 150 245
33 2 37 100 150 245
33 2 38 100 150 245
33 2 39 100 150 245
33 2 40 100 150 245
33 2 41 100 150 245
33 2 42 100 150 245
33 2 43 100 150 245
33 3 17 100 150 245
33 3 18 100 150 245
33 3 19 100 150 245
33 3 21 100 150 245
33 3 22 100 150 245
33 3 25 100 150 245
33 3 26 100 150 245
33 3 27 100 150 245
33 3 28 100 150 245
33 3 29 100 150 245
33 3 30 100 150 245
33 3 31 100 150 245
33 3 32 100 150 245
33 3 33 100 150 245
33 3 34 100 150 245
33 3 35 100 150 245
33 3 36 100 150 245
33 3 37 100 150 245
33 3 38 100 150 245
33 3 39 100 150 245
33 3 40 100 150 245
33 3 41 100 150 245
33 3 42 100 150 245
33 3 43 100 150 245
33 3 44 100 150 245
33 4 22 100 150 245
33 4 31 100 150 245
33 4 32 100 150 245
33 4 33 100 150 245
33 4 34 100 150 245
33 4 35 100 150 245
33 4 36 100 150 245
33 4 37 100 150 245
34 0 20 100 150 245
34 0 21 100 150 245
34 0 22 100 150 245
34 0 23 100 150 245
34 0 24 100 150 245
34 0 25 100 150 245
34 0 26 100 150 245
34 0 27 100 150 245
34 0 28 100 150 245
34 0 29 100 150 245
34 0 30 100 150 245
34 0 31 100 150 245
34 0 32 100 150 245
34 0 33 100 150 245
34 0 34 100 150 245
34 0 35 100 150 245
34 0 36 100 150 245
34 0 37 100 150 245
34 0 38 100 150 245
34 0 39 100 150 245
34 0 40 100 150 245
34 0 41 100 150 245
34 0 42 100 150 245
34 0 43 100 150 245
34 0 44 100 150 245
34 0 45 100 150 245
34 0 46 100 150 245
34 0 47 100 150 245
34 0 59 100 150 245
34 0 60 100 150 245
34 0 61 100 150 245
34 0 62 100 150 245
34 0 63 100 150 245
34 1 19 100 150 245
34 1 20 100 150 245
34 1 21 100 150 245
34 1 22 100 150 245
34 1 23 100 150 245
34 1 24 100 150 245
34 1 25 100 150 245
34 1 26 100 150 245
34 1 27 100 150 245
34 1 28 100 150 245
34 1 29 100 150 245
34 1 30 100 150 245
34 1 31 100 150 245
34 1 32 100 150 245
34 1 33 100 150 245
34 1 34 100 150 245
34 1 35 100 150 245
34 1 36 100 150 245
34 1 37 100 150 245
34 1 38 100 150 245
34 1 39 100 150 245
34 1 40 100 150 245
34 1 41 100 150 245
34 1 42 100 150 245
34 1 46 100 150 245
34 1 63 100 150 245
34 2 17 100 150 245
34 2 18 100 150 245
34 2 19 100 150 245
34 2 20 100 150 245
34 2 21 100 150 245
34 2 22 100 150 245
34 2 23 100 150 245
34 2 24 100 150 245
34 2 25 100 150 245
34 2 26 100 150 245
34 2 27 100 150 245
34 2 28 100 150 245
34 2 29 100 150 245
34 2 30 100 150 245
34 2 31 100 150 245
34 2 32 100 150 245
34 2 33 100 150 245
34 2 34 100 150 245
34 2 35 100 150 245
34 2 36 100 150 245
34 2 37 100 150 245
34 2 38 100 150 245
34 2 39 100 150 245
34 2 40 100 150 245
34 2 41 100 150 245
34 2 42 100 150 245
34 2 43 100 150 245
34 2 44 100 150 245
34 3 17 100 150 245
34 3 19 100 150 245
34 3 20 100 150 245
34 3 21 100 150 245
34 3 22 100 150 245
34 3 23 100 150 245
34 3 24 100 150 245
34 3 25 100 150 245
34 3 26 100 150 245
34 3 27 100 150 245
34 3 28 100 150 245
34 3 29 100 150 245
34 3 30 100 150 245
34 3 31 100 150 245
34 3 32 100 150 245
34 3 33 100 150 245
34 3 34 100 150 245
34 3 35 100 150 245
34 3 36 100 150 245
34 3 37 100 150 245
34 3 38 100 150 245
34 3 39 100 150 245
34 3 40 100 150 245
34 3 41 100 150 245
34 3 42 100 150 245
34 3 43 100 150 245
34 3 44 100 150 245
34 3 45 100 150 245
34 4 21 100 150 245
34 4 22 100 150 245
34 4 28 100 150 245
34 4 30 100 150 245
34 4 31 100 150 245
34 4 32 100 150 245
34 4 33 100 150 245
34 4 34 100 150 245
34 4 35 100 150 245
34 4 36 100 150 245
34 4 37 100 150 245
35 0 17 100 150 245
35 0 18 100 150 245
35 0 19 100 150 245
35 0 20 100 150 245
35 0 21 100 150 245
35 0 22 100 150 245
35 0 23 100 150 245
35 0 24 100 150 245
35 0 25 100 150 245
35 0 26 100 150 245
35 0 27 100 150 245
35 0 28 100 150 245
35 0 29 100 150 245
35 0 30 100 150 245
35 0 31 100 150 245
35 0 32 100 150 245
35 0 33 100 150 245
35 0 34 100 150 245
35 0 35 100 150 245
35 0 36 100 150 245
35 0 37 100 150 245
35 0 38 100 150 245
35 0 39 100 150 245
35 0 40 100 150 245
35 0 41 100 150 245
35 0 42 100 150 245
35 0 43 100 150 245
35 0 44 100 150 245
35 0 45 100 150 245
35 0 46 100 150 245
35 0 47 100 150 245
35 0 48 100 150 245
35 0 59 100 150 245
35 0 60 100 150 245
35 0 61 100 150 245
35 0 62 100 150 245
35 0 63 100 150 245
35 1 18 100 150 245
35 1 19 100 150 245
35 1 20 100 150 245
35 1 21 100 150 245
35 1 22 100 150 245
35 1 23 100 150 245
35 1 24 100 150 245
35 1 25 100 150 245
35 1 26 100 150 245
35 1 27 100 150 245
35 1 28 100 150 245
35 1 29 100 150 245
35 1 30 100 150 245
35 1 31 100 150 245
35 1 32 100 150 245
35 1 33 100 150 245
35 1 34 100 150 245
35 1 35 100 150 245
35 1 36 100 150 245
35 1 37 100 150 245
35 1 38 100 150 245
35 1 39 100 150 245
35 1 40 100 150 245
35 1 41 100 150 245
35 1 42 100 150 245
35 1 43 100 150 245
35 1 44 100 150 245
35 1 46 100 150 245
35 2 18 100 150 245
35 2 19 100 150 245
35 2 20 100 150 245
35 2 21 100 150 245
35 2 22 100 150 245
35 2 23 100 150 245
35 2 24 100 150 245
35 2 25 100 150 245
35 2 26 100 150 245
35 2 27 100 150 245
35 2 28 100 150 245
35 2 29 100 150 245
35 2 30 100 150 245
35 2 31 100 150 245
35 2 32 100 150 245
35 2 33 100 150 245
35 2 34 100 150 245
35 2 35 100 150 245
35 2 36 100 150 245
35 2 37 100 150 245
35 2 38 100 150 245
35 2 39 100 150 245
35 2 40 100 150 245
35 2 41 100 150 245
35 2 42 100 150 245
35 2 43 100 150 245
35 2 44 100 150 245
35 2 45 100 150 245
35 3 18 100 150 245
35 3 19 100 150 245
35 3 20 100 150 245
35 3 21 100 150 245
35 3 22 100 150 245
35 3 23 100 150 245
35 3 24 100 150 245
35 3 25 100 150 245
35 3 26 100 150 245
35 3 27 100 150 245
35 3 28 100 150 245
35 3 29 100 150 245
35 3 30 100 150 245
35 3 31 100 150 245
35 3 32 100 150 245
35 3 33 100 150 245
35 3 34 100 150 245
35 3 35 100 150 245
35 3 36 100 150 245
35 3 37 100 150 245
35 3 38 100 150 245
35 3 39 100 150 245
35 3 40 100 150 245
35 3 41 100 150 245
35 3 42 100 150 245
35 3 43 100 150 245
35 3 44 100 150 245
35 3 45 100 150 245
35 4 22 100 150 245
35 4 27 100 150 245
35 4 28 100 150 245
35 4 29 100 150 245
35 4 30 100 150 245
35 4 31 100 150 245
35 4 32 100 150 245
35 4 33 100 150 245
35 4 34 100 150 245
35 4 35 100 150 245
35 4 36 100 150 245
35 4 37 100 150 245
35 4 38 100 150 245
36 0 18 100 150 245
36 0 19 100 150 245
36 0 20 100 150 245
36 0 21 100 150 245
36 0 22 100 150 245
36 0 23 100 150 245
36 0 24 100 150 245
36 0 25 100 150 245
36 0 26 100 150 245
36 0 27 100 150 245
36 0 28 100 150 245
36 0 29 100 150 245
36 0 30 100 150 245
36 0 31 100 150 245
36 0 32 100 150 245
36 0 33 100 150 245
36 0 34 100 150 245
36 0 35 100 150 245
36 0 36 100 150 245
36 0 37 100 150 245
36 0 38 100 150 245
36 0 39 100 150 245
36 0 40 100 150 245
36 0 41 100 150 245
36 0 42 100 150 245
36 0 43 100 150 245
36 0 44 100 150 245
36 0 45 100 150 245
36 0 46 100 150 245
36 0 47 100 150 245
36 0 48 100 150 245
36 0 59 100 150 245
36 0 62 100 150 245
36 0 63 100 150 245
36 1 18 100 150 245
36 1 19 100 150 245
36 1 20 100 150 245
36 1 21 100 150 245
36 1 22 100 150 245
36 1 23 100 150 245
36 1 24 100 150 245
36 1 25 100 150 245
36 1 26 100 150 245
36 1 27 100 150 245
36 1 28 100 150 245
36 1 29 100 150 245
36 1 30 100 150 245
36 1 31 100 150 245
36 1 32 100 150 245
36 1 33 100 150 245
36 1 34 100 150 245
36 1 35 100 150 245
36 1 36 100 150 245
36 1 37 100 150 245
36 1 38 100 150 245
36 1 39 100 150 245
36 1 40 100 150 245
36 1 41 100 150 245
36 1 42 100 150 245
36 1 43 100 150 245
36 1 44 100 150 245
36 1 47 100 150 245
36 2 19 100 150 245
36 2 20 100 150 245
36 2 21 100 150 245
36 2 22 100 150 245
36 2 23 100 150 245
36 2 24 100 150 245
36 2 25 100 150 245
36 2 26 100 150 245
36 2 27 100 150 245
36 2 28 100 150 245
36 2 29 100 150 245
36 2 30 100 150 245
36 2 31 100 150 245
36 2 32 100 150 245
36 2 33 100 150 245
36 2 34 100 150 245
36 2 35 100 150 245
36 2 36 100 150 245
36 2 37 100 150 245
36 2 38 100 150 245
36 2 39 100 150 245
36 2 40 100 150 245
36 2 41 100 150 245
36 2 42 100 150 245
36 2 43 100 150 245
36 2 44 100 150 245
36 3 18 100 150 245
36 3 19 100 150 245
36 3 20 100 150 245
36 3 21 100 150 245
36 3 22 100 150 245
36 3 23 100 150 245
36 3 24 100 150 245
36 3 25 100 150 245
36 3 26 100 150 245
36 3 27 100 150 245
36 3 28 100 150 245
36 3 29 100 150 245
36 3 30 100 150 245
36 3 31 100 150 245
36 3 32 100 150 245
36 3 33 100 150 245
36 3 34 100 150 245
36 3 35 100 150 245
36 3 36 100 150 245
36 3 37 100 150 245
36 3 38 100 150 245
36 3 39 100 150 245
36 3 40 100 150 245
36 3 41 100 150 245
36 3 42 100 150 245
36 3 43 100 150 245
36 3 44 100 150 245
36 3 45 100 150 245
36 4 22 100 150 245
36 4 26 100 150 245
36 4 27 100 150 245
36 4 28 100 150 245
36 4 29 100 150 245
36 4 30 100 150 245
36 4 31 100 150 245
36 4 32 100 150 245
36 4 33 100 150 245
36 4 34 100 150 245
36 4 35 100 150 245
36 4 36 100 150 245
36 4 37 100 150 245
36 4 38 100 150 245
36 4 40 100 150 245
37 0 19 100 150 245
37 0 20 100 150 245
37 0 21 100 150 245
37 0 22 100 150 245
37 0 23 100 150 245
37 0 24 100 150 245
37 0 25 100 150 245
37 0 26 100 150 245
37 0 27 100 150 245
37 0 28 100 150 245
37 0 29 100 150 245
37 0 30 100 150 245
37 0 31 100 150 245
37 0 32 100 150 245
37 0 33 100 150 245
37 0 34 100 150 245
37 0 35 100 150 245
37 0 36 100 150 245
37 0 37 100 150 245
37 0 38 100 150 245
37 0 39 100 150 245
37 0 40 100 150 245
37 0 41 100 150 245
37 0 42 100 150 245
37 0 43 100 150 245
37 0 44 100 150 245
37 0 45 100 150 245
37 0 46 100 150 245
37 0 47 100 150 245
37 0 48 100 150 245
37 0 49 100 150 245
37 0 63 100 150 245
37 1 19 100 150 245
37 1 20 100 150 245
37 1 21 100 150 245
37 1 22 100 150 245
37 1 23 100 150 245
37 1 24 100 150 245
37 1 25 100 150 245
37 1 26 100 150 245
37 1 27 100 150 245
37 1 28 100 150 245
37 1 29 100 150 245
37 1 30 100 150 245
37 1 31 100 150 245
37 1 32 100 150 245
37 1 33 100 150 245
37 1 34 100 150 245
37 1 35 100 150 245
37 1 36 100 150 245
37 1 37 100 150 245
37 1 38 100 150 245
37 1 39 100 150 245
37 1 40 100 150 245
37 1 41 100 150 245
37 1 42 100 150 245
37 1 43 100 150 245
37 1 44 100 150 245
37 2 19 100 150 245
37 2 20 100 150 245
37 2 21 100 150 245
37 2 22 100 150 245
37 2 23 100 150 245
37 2 24 100 150 245
37 2 25 100 150 245
37 2 26 100 150 245
37 2 27 100 150 245
37 2 28 100 150 245
37 2 29 100 150 245
37 2 30 100 150 245
37 2 31 100 150 245
37 2 32 100 150 245
37 2 33 100 150 245
37 2 34 100 150 245
37 2 35 100 150 245
37 2 36 100 150 245
37 2 37 100 150 245
37 2 38 100 150 245
37 2 39 100 150 245
37 2 40 100 150 245
37 2 41 100 150 245
37 2 42 100 150 245
37 2 43 100 150 245
37 2 44 100 150 245
37 2 45 100 150 245
37 3 19 100 150 245
37 3 20 100 150 245
37 3 21 100 150 245
37 3 22 100 150 245
37 3 24 100 150 245
37 3 25 100 150 245
37 3 26 100 150 245
37 3 27 100 150 245
37 3 28 100 150 245
37 3 29 100 150 245
37 3 30 100 150 245
37 3 31 100 150 245
37 3 32 100 150 245
37 3 33 100 150 245
37 3 34 100 150 245
37 3 35 100 150 245
37 3 36 100 150 245
37 3 37 100 150 245
37 3 38 100 150 245
37 3 39 100 150 245
37 3 40 100 150 245
37 3 41 100 150 245
37 3 42 100 150 245
37 3 43 100 150 245
37 3 44 100 150 245
37 4 21 100 150 245
37 4 22 100 150 245
37 4 25 100 150 245
37 4 26 100 150 245
37 4 27 100 150 245
37 4 28 100 150 245
37 4 29 100 150 245
37 4 30 100 150 245
37 4 31 100 150 245
37 4 32 100 150 245
37 4 33 100 150 245
37 4 34 100 150 245
37 4 35 100 150 245
37 4 36 100 150 245
37 4 37 100 150 245
37 4 38 100 150 245
37 4 39 100 150 245
37 4 40 100 150 245
37 4 42 100 150 245
37 4 43 100 150 245
38 0 19 100 150 245
38 0 20 100 150 245
38 0 21 100 150 245
38 0 22 100 150 245
38 0 23 100 150 245
38 0 24 100 150 245
38 0 25 100 150 245
38 0 26 100 150 245
38 0 27 100 150 245
38 0 28 100 150 245
38 0 29 100 150 245
38 0 30 100 150 245
38 0 31 100 150 245
38 0 32 100 150 245
38 0 33 100 150 245
38 0 34 100 150 245
38 0 35 100 150 245
38 0 36 100 150 245
38 0 37 100 150 245
38 0 38 100 150 245
38 0 39 100 150 245
38 0 40 100 150 245
38 0 41 100 150 245
38 0 42 100 150 245
38 0 43 100 150 245
38 0 44 100 150 245
38 0 45 100 150 245
38 0 46 100 150 245
38 0 47 100 150 245
38 0 48 100 150 245
38 0 49 100 150 245
38 0 55 100 150 245
38 0 62 100 150 245
38 0 63 100 150 245
38 1 19 100 150 245
38 1 20 100 150 245
38 1 21 100 150 245
38 1 22 100 150 245
38 1 23 100 150 245
38 1 24 100 150 245
38 1 25 100 150 245
38 1 26 100 150 245
38 1 27 100 150 245
38 1 28 100 150 245
38 1 29 100 150 245
38 1 30 100 150 245
38 1 31 100 150 245
38 1 32 100 150 245
38 1 33 100 150 245
38 1 34 100 150 245
38 1 35 100 150 245
38 1 36 100 150 245
38 1 37 100 150 245
38 1 38 100 150 245
38 1 39 100 150 245
38 1 40 100 150 245
38 1 41 100 150 245
38 1 42 100 150 245
38 1 43 100 150 245
38 1 44 100 150 245
38 1 45 100 150 245
38 1 46 100 150 245
38 1 48 100 150 245
38 1 54 100 150 245
38 2 4 100 150 245
38 2 19 100 150 245
38 2 20 100 150 245
38 2 21 100 150 245
38 2 22 100 150 245
38 2 23 100 150 245
38 2 24 100 150 245
38 2 25 100 150 245
38 2 26 100 150 245
38 2 27 100 150 245
38 2 28 100 150 245
38 2 29 100 150 245
38 2 30 100 150 245
38 2 31 100 150 245
38 2 32 100 150 245
38 2 33 100 150 245
38 2 34 100 150 245
38 2 35 100 150 245
38 2 36 100 150 245
38 2 37 100 150 245
38 2 38 100 150 245
38 2 39 100 150 245
38 2 40 100 150 245
38 2 41 100 150 245
38 2 42 100 150 245
38 2 43 100 150 245
38 2 44 100 150 245
38 2 45 100 150 245
38 3 4 100 150 245
38 3 20 100 150 245
38 3 21 100 150 245
38 3 22 100 150 245
38 3 23 100 150 245
38 3 24 100 150 245
38 3 25 100 150 245
38 3 26 100 150 245
38 3 27 100 150 245
38 3 28 100 150 245
38 3 29 100 150 245
38 3 30 100 150 245
38 3 31 100 150 245
38 3 32 100 150 245
38 3 33 100 150 245
38 3 34 100 150 245
38 3 35 100 150 245
38 3 36 100 150 245
38 3 37 100 150 245
38 3 38 100 150 245
38 3 39 100 150 245
38 3 40 100 150 245
38 3 41 100 150 245
38 3 42 100 150 245
38 3 43 100 150 245
38 3 44 100 150 245
38 3 45 100 150 245
38 4 19 100 150 245
38 4 20 100 150 245
38 4 21 100 150 245
38 4 24 100 150 245
38 4 25 100 150 245
38 4 26 100 150 245
38 4 27 100 150 245
38 4 28 100 150 245
38 4 29 100 150 245
38 4 30 100 150 245
38 4 31 100 150 245
38 4 32 100 150 245
38 4 33 100 150 245
38 4 34 100 150 245
38 4 35 100 150 245
38 4 36 100 150 245
38 4 37 100 150 245
38 4 38 100 150 245
38 4 39 100 150 245
38 4 40 100 150 245
38 4 43 100 150 245
39 0 4 100 150 245
39 0 20 100 150 245
39 0 21 100 150 245
39 0 22 100 150 245
39 0 23 100 150 245
39 0 24 100 150 245
39 0 25 100 150 245
39 0 26 100 150 245
39 0 27 100 150 245
39 0 28 100 150 245
39 0 29 100 150 245
39 0 30 100 150 245
39 0 31 100 150 245
39 0 32 100 150 245
39 0 33 100 150 245
39 0 34 100 150 245
39 0 35 100 150 245
39 0 36 100 150 245
39 0 37 100 150 245
39 0 38 100 150 245
39 0 39 100 150 245
39 0 40 100 150 245
39 0 41 100 150 245
39 0 42 100 150 245
39 0 43 100 150 245
39 0 44 100 150 245
39 0 45 100 150 245
39 0 46 100 150 245
39 0 47 100 150 245
39 0 48 100 150 245
39 0 49 100 150 245
39 0 50 100 150 245
39 0 54 100 150 245
39 0 55 100 150 245
39 1 3 100 150 245
39 1 4 100 150 245
39 1 21 100 150 245
39 1 22 100 150 245
39 1 23 100 150 245
39 1 24 100 150 245
39 1 25 100 150 245
39 1 26 100 150 245
39 1 27 100 150 245
39 1 28 100 150 245
39 1 29 100 150 245
39 1 30 100 150 245
39 1 31 100 150 245
39 1 32 100 150 245
39 1 33 100 150 245
39 1 34 100 150 245
39 1 35 100 150 245
39 1 36 100 150 245
39 1 37 100 150 245
39 1 38 100 150 245
39 1 39 100 150 245
39 1 40 100 150 245
39 1 41 100 150 245
39 1 42 100 150 245
39 1 43 100 150 245
39 1 44 100 150 245
39 1 47 100 150 245
39 1 50 100 150 245
39 1 51 100 150 245
39 1 54 100 150 245
39 1 55 100 150 245
39 2 4 100 150 245
39 2 20 100 150 245
39 2 21 100 150 245
39 2 22 100 150 245
39 2 23 100 150 245
39 2 24 100 150 245
39 2 25 100 150 245
39 2 26 100 150 245
39 2 27 100 150 245
39 2 28 100 150 245
39 2 29 100 150 245
39 2 30 100 150 245
39 2 31 100 150 245
39 2 32 100 150 245
39 2 33 100 150 245
39 2 34 100 150 245
39 2 35 100 150 245
39 2 36 100 150 245
39 2 37 100 150 245
39 2 38 100 150 245
39 2 39 100 150 245
39 2 40 100 150 245
39 2 41 100 150 245
39 2 42 100 150 245
39 2 43 100 150 245
39 2 44 100 150 245
39 2 48 100 150 245
39 3 4 100 150 245
39 3 20 100 150 245
39 3 21 100 150 245
39 3 22 100 150 245
39 3 23 100 150 245
39 3 24 100 150 245
39 3 25 100 150 245
39 3 26 100 150 245
39 3 27 100 150 245
39 3 28 100 150 245
39 3 29 100 150 245
39 3 30 100 150 245
39 3 31 100 150 245
39 3 32 100 150 245
39 3 33 100 150 245
39 3 34 100 150 245
39 3 35 100 150 245
39 3 36 100 150 245
39 3 37 100 150 245
39 3 38 100 150 245
39 3 39 100 150 245
39 3 40 100 150 245
39 3 41 100 150 245
39 3 42 100 150 245
39 3 43 100 150 245
39 3 44 100 150 245
39 3 46 100 150 245
39 4 20 100 150 245
39 4 21 100 150 245
39 4 22 100 150 245
39 4 23 100 150 245
39 4 24 100 150 245
39 4 25 100 150 245
39 4 26 100 150 245
39 4 27 100 150 245
39 4 28 100 150 245
39 4 29 100 150 245
39 4 30 100 150 245
39 4 31 100 150 245
39 4 32 100 150 245
39 4 33 100 150 245
39 4 34 100 150 245
39 4 35 100 150 245
39 4 36 100 150 245
39 4 37 100 150 245
39 4 38 100 150 245
39 4 39 100 150 245
39 4 40 100 150 245
39 4 41 100 150 245
39 4 42 100 150 245
39 4 43 100 150 245
39 5 36 100 150 245
39 5 37 100 150 245
40 0 22 100 150 245
40 0 23 100 150 245
40 0 24 100 150 245
40 0 25 100 150 245
40 0 26 100 150 245
40 0 27 100 150 245
40 0 28 100 150 245
40 0 29 100 150 245
40 0 30 100 150 245
40 0 31 100 150 245
40 0 32 100 150 245
40 0 33 100 150 245
40 0 34 100 150 245
40 0 35 100 150 245
40 0 36 100 150 245
40 0 37 100 150 245
40 0 38 100 150 245
40 0 39 100 150 245
40 0 40 100 150 245
40 0 41 100 150 245
40 0 42 100 150 245
40 0 43 100 150 245
40 0 44 100 150 245
40 0 45 100 150 245
40 0 46 100 150 245
40 0 47 100 150 245
40 0 48 100 150 245
40 0 49 100 150 245
40 0 50 100 150 245
40 0 51 100 150 245
40 0 54 100 150 245
40 0 55 100 150 245
40 0 56 100 150 245
40 1 21 100 150 245
40 1 22 100 150 245
40 1 24 100 150 245
40 1 25 100 150 245
40 1 26 100 150 245
40 1 27 100 150 245
40 1 28 100 150 245
40 1 29 100 150 245
40 1 30 100 150 245
40 1 31 100 150 245
40 1 32 100 150 245
40 1 33 100 150 245
40 1 34 100 150 245
40 1 35 100 150 245
40 1 36 100 150 245
40 1 37 100 150 245
40 1 38 100 150 245
40 1 39 100 150 245
40 1 40 100 150 245
40 1 41 100 150 245
40 1 42 100 150 245
40 1 43 100 150 245
40 1 44 100 150 245
40 1 45 100 150 245
40 1 46 100 150 245
40 1 47 100 150 245
40 1 49 100 150 245
40 1 50 100 150 245
40 1 51 100 150 245
40 1 55 100 150 245
40 2 21 100 150 245
40 2 22 100 150 245
40 2 23 100 150 245
40 2 24 100 150 245
40 2 25 100 150 245
40 2 26 100 150 245
40 2 27 100 150 245
40 2 28 100 150 245
40 2 29 100 150 245
40 2 30 100 150 245
40 2 31 100 150 245
40 2 32 100 150 245
40 2 33 100 150 245
40 2 34 100 150 245
40 2 35 100 150 245
40 2 36 100 150 245
40 2 37 100 150 245
40 2 38 100 150 245
40 2 39 100 150 245
40 2 40 100 150 245
40 2 41 100 150 245
40 2 42 100 150 245
40 2 43 100 150 245
40 2 44 100 150 245
40 2 48 100 150 245
40 3 3 100 150 245
40 3 4 100 150 245
40 3 5 100 150 245
40 3 21 100 150 245
40 3 22 100 150 245
40 3 23 100 150 245
40 3 24 100 150 245
40 3 25 100 150 245
40 3 26 100 150 245
40 3 27 100 150 245
40 3 28 100 150 245
40 3 29 100 150 245
40 3 30 100 150 245
40 3 31 100 150 245
40 3 32 100 150 245
40 3 33 100 150 245
40 3 34 100 150 245
40 3 35 100 150 245
40 3 36 100 150 245
40 3 37 100 150 245
40 3 38 100 150 245
40 3 39 100 150 245
40 3 40 100 150 245
40 3 41 100 150 245
40 3 42 100 150 245
40 3 43 100 150 245
40 3 44 100 150 245
40 4 21 100 150 245
40 4 22 100 150 245
40 4 23 100 150 245
40 4 24 100 150 245
40 4 25 100 150 245
40 4 26 100 150 245
40 4 27 100 150 245
40 4 28 100 150 245
40 4 29 100 150 245
40 4 30 100 150 245
40 4 31 100 150 245
40 4 32 100 150 245
40 4 33 100 150 245
40 4 34 100 150 245
40 4 35 100 150 245
40 4 36 100 150 245
40 4 37 100 150 245
40 4 38 100 150 245
40 4 39 100 150 245
40 4 40 100 150 245
40 4 41 100 150 245
40 4 42 100 150 245
40 4 43 100 150 245
40 4 44 100 150 245
40 4 47 100 150 245
40 5 35 100 150 245
40 5 36 100 150 245
40 5 37 100 150 245
40 5 38 100 150 245
41 0 21 100 150 245
41 0 22 100 150 245
41 0 23 100 150 245
41 0 24 100 150 245
41 0 25 100 150 245
41 0 26 100 150 245
41 0 27 100 150 245
41 0 28 100 150 245
41 0 29 100 150 245
41 0 30 100 150 245
41 0 31 100 150 245
41 0 32 100 150 245
41 0 33 100 150 245
41 0 34 100 150 245
41 0 35 100 150 245
41 0 36 100 150 245
41 0 37 100 150 245
41 0 38 100 150 245
41 0 39 100 150 245
41 0 40 100 150 245
41 0 41 100 150 245
41 0 42 100 150 245
41 0 43 100 150 245
41 0 44 100 150 245
41 0 45 100 150 245
41 0 46 100 150 245
41 0 47 100 150 245
41 0 48 100 150 245
41 0 49 100 150 245
41 0 50 100 150 245
41 0 51 100 150 245
41 0 55 100 150 245
41 0 56 100 150 245
41 1 21 100 150 245
41 1 22 100 150 245
41 1 23 100 150 245
41 1 24 100 150 245
41 1 25 100 150 245
41 1 26 100 150 245
41 1 27 100 150 245
41 1 28 100 150 245
41 1 29 100 150 245
41 1 30 100 150 245
41 1 31 100 150 245
41 1 32 100 150 245
41 1 33 100 150 245
41 1 34 100 150 245
41 1 35 100 150 245
41 1 36 100 150 245
41 1 37 100 150 245
41 1 38 100 150 245
41 1 39 100 150 245
41 1 40 100 150 245
41 1 41 100 150 245
41 1 42 100 150 245
41 1 43 100 150 245
41 1 44 100 150 245
41 1 45 100 150 245
41 1 46 100 150 245
41 1 47 100 150 245
41 1 48 100 150 245
41 1 49 100 150 245
41 1 50 100 150 245
41 1 51 100 150 245
41 1 52 100 150 245
41 1 56 100 150 245
41 2 21 100 150 245
41 2 22 100 150 245
41 2 23 100 150 245
41 2 24 100 150 245
41 2 25 100 150 245
41 2 26 100 150 245
41 2 27 100 150 245
41 2 28 100 150 245
41 2 29 100 150 245
41 2 30 100 150 245
41 2 31 100 150 245
41 2 32 100 150 245
41 2 33 100 150 245
41 2 34 100 150 245
41 2 35 100 150 245
41 2 36 100 150 245
41 2 37 100 150 245
41 2 38 100 150 245
41 2 39 100 150 245
41 2 40 100 150 245
41 2 41 100 150 245
41 2 42 100 150 245
41 2 43 100 150 245
41 2 44 100 150 245
41 2 45 100 150 245
41 2 48 100 150 245
41 2 49 100 150 245
41 3 21 100 150 245
41 3 22 100 150 245
41 3 23 100 150 245
41 3 24 100 150 245
41 3 25 100 150 245
41 3 26 100 150 245
41 3 27 100 150 245
41 3 28 100 150 245
41 3 29 100 150 245
41 3 30 100 150 245
41 3 31 100 150 245
41 3 32 100 150 245
41 3 33 100 150 245
41 3 34 100 150 245
41 3 35 100 150 245
41 3 36 100 150 245
41 3 37 100 150 245
41 3 38 100 150 245
41 3 39 100 150 245
41 3 40 100 150 245
41 3 41 100 150 245
41 3 42 100 150 245
41 3 43 100 150 245
41 3 44 100 150 245
41 3 45 100 150 245
41 3 46 100 150 245
41 3 48 100 150 245
41 3 49 100 150 245
41 4 21 100 150 245
41 4 22 100 150 245
41 4 23 100 150 245
41 4 24 100 150 245
41 4 25 100 150 245
41 4 26 100 150 245
41 4 27 100 150 245
41 4 28 100 150 245
41 4 29 100 150 245
41 4 30 100 150 245
41 4 31 100 150 245
41 4 32 100 150 245
41 4 33 100 150 245
41 4 34 100 150 245
41 4 35 100 150 245
41 4 36 100 150 245
41 4 37 100 150 245
41 4 38 100 150 245
41 4 39 100 150 245
41 4 40 100 150 245
41 4 41 100 150 245
41 4 42 100 150 245
41 4 43 100 150 245
41 4 44 100 150 245
41 4 47 100 150 245
41 4 49 100 150 245
41 5 35 100 150 245
41 5 36 100 150 245
41 5 37 100 150 245
41 5 38 100 150 245
42 0 22 100 150 245
42 0 23 100 150 245
42 0 24 100 150 245
42 0 25 100 150 245
42 0 26 100 150 245
42 0 27 100 150 245
42 0 28 100 150 245
42 0 29 100 150 245
42 0 30 100 150 245
42 0 31 100 150 245
42 0 32 100 150 245
42 0 33 100 150 245
42 0 34 100 150 245
42 0 35 100 150 245
42 0 36 100 150 245
42 0 37 100 150 245
42 0 38 100 150 245
42 0 39 100 150 245
42 0 40 100 150 245
42 0 41 100 150 245
42 0 42 100 150 245
42 0 43 100 150 245
42 0 44 100 150 245
42 0 45 100 150 245
42 0 46 100 150 245
42 0 47 100 150 245
42 0 48 100 150 245
42 0 49 100 150 245
42 0 50 100 150 245
42 0 51 100 150 245
42 0 52 100 150 245
42 0 56 100 150 245
42 0 57 100 150 245
42 1 22 100 150 245
42 1 23 100 150 245
42 1 24 100 150 245
42 1 25 100 150 245
42 1 26 100 150 245
42 1 27 100 150 245
42 1 28 100 150 245
42 1 29 100 150 245
42 1 30 100 150 245
42 1 31 100 150 245
42 1 32 100 150 245
42 1 33 100 150 245
42 1 34 100 150 245
42 1 35 100 150 245
42 1 36 100 150 245
42 1 37 100 150 245
42 1 38 100 150 245
42 1 39 100 150 245
42 1 40 100 150 245
42 1 41 100 150 245
42 1 42 100 150 245
42 1 43 100 150 245
42 1 44 100 150 245
42 1 45 100 150 245
42 1 46 100 150 245
42 1 47 100 150 245
42 1 48 100 150 245
42 1 49 100 150 245
42 1 50 100 150 245
42 1 51 100 150 245
42 1 52 100 150 245
42 1 56 100 150 245
42 2 22 100 150 245
42 2 23 100 150 245
42 2 24 100 150 245
42 2 25 100 150 245
42 2 26 100 150 245
42 2 27 100 150 245
42 2 28 100 150 245
42 2 29 100 150 245
42 2 30 100 150 245
42 2 31 100 150 245
42 2 32 100 150 245
42 2 33 100 150 245
42 2 34 100 150 245
42 2 35 100 150 245
42 2 36 100 150 245
42 2 37 100 150 245
42 2 38 100 150 245
42 2 39 100 150 245
42 2 40 100 150 245
42 2 41 100 150 245
42 2 42 100 150 245
42 2 43 100 150 245
42 2 44 100 150 245
42 2 45 100 150 245
42 2 46 100 150 245
42 2 47 100 150 245
42 2 48 100 150 245
42 2 49 100 150 245
42 3 22 100 150 245
42 3 23 100 150 245
42 3 24 100 150 245
42 3 25 100 150 245
42 3 26 100 150 245
42 3 27 100 150 245
42 3 28 100 150 245
42 3 29 100 150 245
42 3 30 100 150 245
42 3 31 100 150 245
42 3 32 100 150 245
42 3 33 100 150 245
42 3 34 100 150 245
42 3 35 100 150 245
42 3 36 100 150 245
42 3 37 100 150 245
42 3 38 100 150 245
42 3 39 100 150 245
42 3 40 100 150 245
42 3 41 100 150 245
42 3 42 100 150 245
42 3 43 100 150 245
42 3 44 100 150 245
42 3 45 100 150 245
42 3 46 100 150 245
42 3 47 100 150 245
42 3 48 100 150 245
42 3 49 100 150 245
42 4 22 100 150 245
42 4 23 100 150 245
42 4 24 100 150 245
42 4 25 100 150 245
42 4 26 100 150 245
42 4 27 100 150 245
42 4 28 100 150 245
42 4 29 100 150 245
42 4 30 100 150 245
42 4 31 100 150 245
42 4 32 100 150 245
42 4 33 100 150 245
42 4 34 100 150 245
42 4 35 100 150 245
42 4 36 100 150 245
42 4 37 100 150 245
42 4 38 100 150 245
42 4 39 100 150 245
42 4 40 100 150 245
42 4 41 100 150 245
42 4 42 100 150 245
42 4 43 100 150 245
42 4 44 100 150 245
42 4 45 100 150 245
42 4 47 100 150 245
42 4 48 100 150 245
42 4 49 100 150 245
42 5 33 100 150 245
42 5 34 100 150 245
42 5 35 100 150 245
42 5 36 100 150 245
42 5 37 100 150 245
42 5 38 100 150 245
42 5 39 100 150 245
43 0 23 100 150 245
43 0 24 100 150 245
43 0 25 100 150 245
43 0 26 100 150 245
43 0 27 100 150 245
43 0 28 100 150 245
43 0 29 100 150 245
43 0 30 100 150 245
43 0 31 100 150 245
43 0 32 100 150 245
43 0 33 100 150 245
43 0 34 100 150 245
43 0 35 100 150 245
43 0 36 100 150 245
43 0 37 100 150 245
43 0 38 100 150 245
43 0 39 100 150 245
43 0 40 100 150 245
43 0 41 100 150 245
43 0 42 100 150 245
43 0 43 100 150 245
43 0 44 100 150 245
43 0 45 100 150 245
43 0 46 100 150 245
43 0 47 100 150 245
43 0 48 100 150 245
43 0 49 100 150 245
43 0 50 100 150 245
43 0 51 100 150 245
43 0 52 100 150 245
43 0 57 100 150 245
43 1 23 100 150 245
43 1 24 100 150 245
43 1 25 100 150 245
43 1 26 100 150 245
43 1 27 100 150 245
43 1 28 100 150 245
43 1 29 100 150 245
43 1 30 100 150 245
43 1 31 100 150 245
43 1 32 100 150 245
43 1 33 100 150 245
43 1 34 100 150 245
43 1 35 100 150 245
43 1 36 100 150 245
43 1 37 100 150 245
43 1 38 100 150 245
43 1 39 100 150 245
43 1 40 100 150 245
43 1 41 100 150 245
43 1 42 100 150 245
43 1 43 100 150 245
43 1 44 100 150 245
43 1 45 100 150 245
43 1 46 100 150 245
43 1 47 100 150 245
43 1 48 100 150 245
43 1 49 100 150 245
43 1 50 100 150 245
43 1 51 100 150 245
43 1 52 100 150 245
43 1 53 100 150 245
43 1 57 100 150 245
43 2 24 100 150 245
43 2 25 100 150 245
43 2 26 100 150 245
43 2 27 100 150 245
43 2 28 100 150 245
43 2 29 100 150 245
43 2 30 100 150 245
43 2 31 100 150 245
43 2 32 100 150 245
43 2 33 100 150 245
43 2 34 100 150 245
43 2 35 100 150 245
43 2 36 100 150 245
43 2 37 100 150 245
43 2 38 100 150 245
43 2 39 100 150 245
43 2 40 100 150 245
43 2 41 100 150 245
43 2 42 100 150 245
43 2 43 100 150 245
43 2 44 100 150 245
43 2 45 100 150 245
43 2 46 100 150 245
43 2 47 100 150 245
43 2 48 100 150 245
43 2 49 100 150 245
43 2 50 100 150 245
43 3 24 100 150 245
43 3 25 100 150 245
43 3 26 100 150 245
43 3 27 100 150 245
43 3 28 100 150 245
43 3 29 100 150 245
43 3 30 100 150 245
43 3 31 100 150 245
43 3 32 100 150 245
43 3 33 100 150 245
43 3 34 100 150 245
43 3 35 100 150 245
43 3 36 100 150 245
43 3 37 100 150 245
43 3 38 100 150 245
43 3 39 100 150 245
43 3 40 100 150 245
43 3 41 100 150 245
43 3 42 100 150 245
43 3 43 100 150 245
43 3 44 100 150 245
43 3 45 100 150 245
43 3 46 100 150 245
43 3 47 100 150 245
43 3 48 100 150 245
43 3 49 100 150 245
43 3 50 100 150 245
43 4 24 100 150 245
43 4 25 100 150 245
43 4 26 100 150 245
43 4 27 100 150 245
43 4 28 100 150 245
43 4 29 100 150 245
43 4 30 100 150 245
43 4 31 100 150 245
43 4 32 100 150 245
43 4 33 100 150 245
43 4 34 100 150 245
43 4 35 100 150 245
43 4 36 100 150 245
43 4 37 100 150 245
43 4 38 100 150 245
43 4 39 100 150 245
43 4 40 100 150 245
43 4 41 100 150 245
43 4 42 100 150 245
43 4 43 100 150 245
43 4 44 100 150 245
43 4 45 100 150 245
43 4 47 100 150 245
43 4 48 100 150 245
43 4 49 100 150 245
43 4 50 100 150 245
43 5 32 100 150 245
43 5 33 100 150 245
43 5 34 100 150 245
43 5 35 100 150 245
43 5 36 100 150 245
43 5 37 100 150 245
43 5 38 100 150 245
43 5 39 100 150 245
44 0 24 100 150 245
44 0 25 100 150 245
44 0 26 100 150 245
44 0 27 100 150 245
44 0 28 100 150 245
44 0 29 100 150 245
44 0 30 100 150 245
44 0 31 100 150 245
44 0 32 100 150 245
44 0 33 100 150 245
44 0 34 100 150 245
44 0 35 100 150 245
44 0 36 100 150 245
44 0 37 100 150 245
44 0 38 100 150 245
44 0 39 100 150 245
44 0 40 100 150 245
44 0 41 100 150 245
44 0 42 100 150 245
44 0 43 100 150 245
44 0 44 100 150 245
44 0 45 100 150 245
44 0 46 100 150 245
44 0 47 100 150 245
44 0 48 100 150 245
44 0 49 100 150 245
44 0 50 100 150 245
44 0 51 100 150 245
44 0 52 100 150 245
44 0 53 100 150 245
44 0 57 100 150 245
44 0 58 100 150 245
44 1 24 100 150 245
44 1 25 100 150 245
44 1 26 100 150 245
44 1 27 100 150 245
44 1 28 100 150 245
44 1 29 100 150 245
44 1 30 100 150 245
44 1 31 100 150 245
44 1 32 100 150 245
44 1 33 100 150 245
44 1 34 100 150 245
44 1 35 100 150 245
44 1 36 100 150 245
44 1 37 100 150 245
44 1 38 100 150 245
44 1 39 100 150 245
44 1 40 100 150 245
44 1 41 100 150 245
44 1 42 100 150 245
44 1 43 100 150 245
44 1 44 100 150 245
44 1 45 100 150 245
44 1 46 100 150 245
44 1 47 100 150 245
44 1 48 100 150 245
44 1 49 100 150 245
44 1 50 100 150 245
44 1 51 100 150 245
44 1 52 100 150 245
44 1 53 100 150 245
44 1 58 100 150 245
44 2 27 100 150 245
44 2 29 100 150 245
44 2 30 100 150 245
44 2 31 100 150 245
44 2 32 100 150 245
44 2 33 100 150 245
44 2 34 100 150 245
44 2 35 100 150 245
44 2 36 100 150 245
44 2 37 100 150 245
44 2 38 100 150 245
44 2 39 100 150 245
44 2 40 100 150 245
44 2 41 100 150 245
44 2 42 100 150 245
44 2 43 100 150 245
44 2 44 100 150 245
44 2 45 100 150 245
44 2 46 100 150 245
44 2 47 100 150 245
44 2 48 100 150 245
44 2 49 100 150 245
44 2 50 100 150 245
44 3 27 100 150 245
44 3 28 100 150 245
44 3 29 100 150 245
44 3 30 100 150 245
44 3 31 100 150 245
44 3 32 100 150 245
44 3 33 100 150 245
44 3 34 100 150 245
44 3 35 100 150 245
44 3 36 100 150 245
44 3 37 100 150 245
44 3 38 100 150 245
44 3 39 100 150 245
44 3 40 100 150 245
44 3 41 100 150 245
44 3 42 100 150 245
44 3 43 100 150 245
44 3 44 100 150 245
44 3 45 100 150 245
44 3 46 100 150 245
44 3 47 100 150 245
44 3 48 100 150 245
44 3 49 100 150 245
44 3 50 100 150 245
44 4 27 100 150 245
44 4 28 100 150 245
44 4 29 100 150 245
44 4 30 100 150 245
44 4 31 100 150 245
44 4 32 100 150 245
44 4 33 100 150 245
44 4 34 100 150 245
44 4 35 100 150 245
44 4 36 100 150 245
44 4 37 100 150 245
44 4 38 100 150 245
44 4 39 100 150 245
44 4 40 100 150 245
44 4 41 100 150 245
44 4 42 100 150 245
44 4 43 100 150 245
44 4 44 100 150 245
44 4 45 100 150 245
44 4 47 100 150 245
44 4 48 100 150 245
44 4 49 100 150 245
44 4 50 100 150 245
44 5 31 100 150 245
44 5 32 100 150 245
44 5 33 100 150 245
44 5 34 100 150 245
44 5 35 100 150 245
44 5 36 100 150 245
44 5 37 100 150 245
44 5 38 100 150 245
44 5 39 100 150 245
45 0 24 100 150 245
45 0 25 100 150 245
45 0 26 100 150 245
45 0 27 100 150 245
45 0 28 100 150 245
45 0 29 100 150 245
45 0 30 100 150 245
45 0 31 100 150 245
45 0 32 100 150 245
45 0 33 100 150 245
45 0 34 100 150 245
45 0 35 100 150 245
45 0 36 100 150 245
45 0 37 100 150 245
45 0 38 100 150 245
45 0 39 100 150 245
45 0 40 100 150 245
45 0 41 100 150 245
45 0 42 100 150 245
45 0 43 100 150 245
45 0 44 100 150 245
45 0 45 100 150 245
45 0 46 100 150 245
45 0 47 100 150 245
45 0 48 100 150 245
45 0 49 100 150 245
45 0 50 100 150 245
45 0 51 100 150 245
45 0 52 100 150 245
45 0 53 100 150 245
45 0 54 100 150 245
45 0 58 100 150 245
45 0 59 100 150 245
45 1 24 100 150 245
45 1 25 100 150 245
45 1 26 100 150 245
45 1 27 100 150 245
45 1 28 100 150 245
45 1 29 100 150 245
45 1 30 100 150 245
45 1 31 100 150 245
45 1 32 100 150 245
45 1 33 100 150 245
45 1 34 100 150 245
45 1 35 100 150 245
45 1 36 100 150 245
45 1 37 100 150 245
45 1 38 100 150 245
45 1 39 100 150 245
45 1 40 100 150 245
45 1 41 100 150 245
45 1 42 100 150 245
45 1 43 100 150 245
45 1 44 100 150 245
45 1 45 100 150 245
45 1 46 100 150 245
45 1 47 100 150 245
45 1 48 100 150 245
45 1 49 100 150 245
45 1 50 100 150 245
45 1 51 100 150 245
45 2 29 100 150 245
45 2 30 100 150 245
45 2 41 100 150 245
45 2 42 100 150 245
45 2 43 100 150 245
45 2 44 100 150 245
45 2 45 100 150 245
45 2 46 100 150 245
45 2 47 100 150 245
45 2 48 100 150 245
45 2 49 100 150 245
45 2 50 100 150 245
45 2 51 100 150 245
45 3 29 100 150 245
45 3 30 100 150 245
45 3 31 100 150 245
45 3 32 100 150 245
45 3 33 100 150 245
45 3 34 100 150 245
45 3 35 100 150 245
45 3 36 100 150 245
45 3 37 100 150 245
45 3 38 100 150 245
45 3 39 100 150 245
45 3 40 100 150 245
45 3 41 100 150 245
45 3 42 100 150 245
45 3 43 100 150 245
45 3 44 100 150 245
45 3 45 100 150 245
45 3 46 100 150 245
45 3 47 100 150 245
45 3 48 100 150 245
45 3 49 100 150 245
45 3 50 100 150 245
45 3 51 100 150 245
45 4 30 100 150 245
45 4 31 100 150 245
45 4 32 100 150 245
45 4 33 100 150 245
45 4 34 100 150 245
45 4 35 100 150 245
45 4 36 100 150 245
45 4 37 100 150 245
45 4 38 100 150 245
45 4 39 100 150 245
45 4 40 100 150 245
45 4 41 100 150 245
45 4 42 100 150 245
45 4 43 100 150 245
45 4 44 100 150 245
45 4 45 100 150 245
45 4 46 100 150 245
45 4 47 100 150 245
45 4 48 100 150 245
45 4 49 100 150 245
45 4 50 100 150 245
45 5 35 100 150 245
45 5 36 100 150 245
45 5 37 100 150 245
45 5 38 100 150 245
45 5 39 100 150 245
46 0 23 100 150 245
46 0 24 100 150 245
46 0 25 100 150 245
46 0 26 100 150 245
46 0 28 100 150 245
46 0 29 100 150 245
46 0 30 100 150 245
46 0 31 100 150 245
46 0 32 100 150 245
46 0 33 100 150 245
46 0 34 100 150 245
46 0 35 100 150 245
46 0 36 100 150 245
46 0 37 100 150 245
46 0 38 100 150 245
46 0 39 100 150 245
46 0 40 100 150 245
