ply
format ascii 1.0
element vertex 2213
property float x
property float y
property float z
property uchar red
property uchar green
property uchar blue
end_header
115 11 82 100 150 245
115 11 83 100 150 245
115 11 86 100 150 245
115 11 87 100 150 245
115 11 88 100 150 245
115 11 89 100 150 245
115 11 90 100 150 245
115 11 91 100 150 245
115 11 92 100 150 245
115 11 93 100 150 245
115 11 94 100 150 245
115 11 95 100 150 245
115 11 96 100 150 245
115 11 97 100 150 245
115 11 98 100 150 245
115 11 99 100 150 245
115 11 100 100 150 245
115 11 105 100 150 245
115 11 106 100 150 245
115 11 107 100 150 245
115 11 108 100 150 245
115 11 109 100 150 245
115 11 110 100 150 245
115 11 111 100 150 245
115 11 112 100 150 245
115 11 113 100 150 245
115 11 114 100 150 245
115 11 115 100 150 245
115 11 116 100 150 245
115 11 117 100 150 245
115 11 118 100 150 245
115 11 119 100 150 245
115 11 120 100 150 245
115 11 121 100 150 245
115 11 122 100 150 245
115 11 123 100 150 245
115 11 124 100 150 245
115 11 125 100 150 245
115 11 126 100 150 245
115 12 65 100 150 245
115 12 66 100 150 245
115 12 67 100 150 245
115 12 68 100 150 245
115 12 69 100 150 245
115 12 70 100 150 245
115 12 71 100 150 245
115 12 72 100 150 245
115 12 73 100 150 245
115 12 74 100 150 245
115 12 77 100 150 245
115 12 78 100 150 245
115 12 79 100 150 245
115 12 80 100 150 245
115 12 81 100 150 245
115 12 82 100 150 245
115 12 83 100 150 245
115 12 84 100 150 245
115 12 85 100 150 245
115 12 86 100 150 245
115 12 90 100 150 245
115 12 91 100 150 245
115 12 92 100 150 245
115 12 120 100 150 245
115 12 121 100 150 245
115 12 122 100 150 245
115 12 126 100 150 245
115 13 72 100 150 245
115 13 73 100 150 245
115 13 74 100 150 245
115 13 75 100 150 245
115 13 76 100 150 245
115 13 77 100 150 245
115 13 78 100 150 245
115 13 79 100 150 245
115 13 81 100 150 245
115 13 82 100 150 245
115 13 83 100 150 245
115 13 84 100 150 245
115 13 85 100 150 245
116 0 60 100 150 245
116 0 62 100 150 245
116 0 63 100 150 245
116 0 64 100 150 245
116 0 65 100 150 245
116 0 66 100 150 245
116 0 67 100 150 245
116 0 68 100 150 245
116 0 69 100 150 245
116 0 70 100 150 245
116 0 71 100 150 245
116 0 72 100 150 245
116 0 73 100 150 245
116 0 74 100 150 245
116 0 75 100 150 245
116 0 76 100 150 245
116 0 77 100 150 245
116 0 78 100 150 245
116 0 79 100 150 245
116 0 80 100 150 245
116 0 81 100 150 245
116 0 82 100 150 245
116 0 83 100 150 245
116 0 84 100 150 245
116 0 85 100 150 245
116 0 86 100 150 245
116 0 87 100 150 245
116 0 88 100 150 245
116 0 89 100 150 245
116 0 90 100 150 245
116 0 91 100 150 245
116 0 92 100 150 245
116 0 93 100 150 245
116 0 94 100 150 245
116 0 95 100 150 245
116 0 96 100 150 245
116 0 97 100 150 245
116 0 98 100 150 245
116 0 99 100 150 245
116 0 100 100 150 245
116 0 101 100 150 245
116 0 102 100 150 245
116 0 103 100 150 245
116 0 104 100 150 245
116 0 105 100 150 245
116 0 106 100 150 245
116 0 107 100 150 245
116 0 108 100 150 245
116 0 109 100 150 245
116 0 110 100 150 245
116 0 111 100 150 245
116 0 112 100 150 245
116 0 113 100 150 245
116 0 114 100 150 245
116 0 115 100 150 245
116 0 116 100 150 245
116 0 117 100 150 245
116 0 118 100 150 245
116 0 119 100 150 245
116 0 120 100 150 245
116 0 121 100 150 245
116 0 122 100 150 245
116 0 123 100 150 245
116 0 124 100 150 245
116 0 125 100 150 245
116 0 126 100 150 245
116 0 127 100 150 245
116 1 60 100 150 245
116 1 63 100 150 245
116 1 64 100 150 245
116 1 65 100 150 245
116 1 66 100 150 245
116 1 67 100 150 245
116 1 68 100 150 245
116 1 69 100 150 245
116 1 70 100 150 245
116 1 71 100 150 245
116 1 72 100 150 245
116 1 73 100 150 245
116 1 74 100 150 245
116 1 75 100 150 245
116 1 76 100 150 245
116 1 77 100 150 245
116 1 78 100 150 245
116 1 79 100 150 245
116 1 80 100 150 245
116 1 81 100 150 245
116 1 82 100 150 245
116 1 83 100 150 245
116 1 84 100 150 245
116 1 85 100 150 245
116 1 86 100 150 245
116 1 87 100 150 245
116 1 88 100 150 245
116 1 89 100 150 245
116 1 90 100 150 245
116 1 91 100 150 245
116 1 92 100 150 245
116 1 93 100 150 245
116 1 94 100 150 245
116 1 95 100 150 245
116 1 96 100 150 245
116 1 97 100 150 245
116 1 98 100 150 245
116 1 99 100 150 245
116 1 100 100 150 245
116 1 101 100 150 245
116 1 102 100 150 245
116 1 103 100 150 245
116 1 104 100 150 245
116 1 105 100 150 245
116 1 106 100 150 245
116 1 107 100 150 245
116 1 108 100 150 245
116 1 109 100 150 245
116 1 110 100 150 245
116 1 111 100 150 245
116 1 112 100 150 245
116 1 113 100 150 245
116 1 114 100 150 245
116 1 115 100 150 245
116 1 116 100 150 245
116 1 117 100 150 245
116 1 118 100 150 245
116 1 119 100 150 245
116 1 120 100 150 245
116 1 121 100 150 245
116 1 122 100 150 245
116 1 123 100 150 245
116 1 124 100 150 245
116 1 125 100 150 245
116 2 46 100 150 245
116 2 55 100 150 245
116 2 56 100 150 245
116 2 57 100 150 245
116 2 58 100 150 245
116 2 59 100 150 245
116 2 60 100 150 245
116 2 61 100 150 245
116 2 62 100 150 245
116 2 63 100 150 245
116 2 64 100 150 245
116 2 65 100 150 245
116 2 66 100 150 245
116 2 67 100 150 245
116 2 68 100 150 245
116 2 69 100 150 245
116 2 70 100 150 245
116 2 71 100 150 245
116 2 72 100 150 245
116 2 73 100 150 245
116 2 74 100 150 245
116 2 75 100 150 245
116 2 76 100 150 245
116 2 77 100 150 245
116 2 78 100 150 245
116 2 79 100 150 245
116 2 80 100 150 245
116 2 81 100 150 245
116 2 82 100 150 245
116 2 83 100 150 245
116 2 84 100 150 245
116 2 85 100 150 245
116 2 86 100 150 245
116 2 87 100 150 245
116 2 88 100 150 245
116 2 89 100 150 245
116 2 90 100 150 245
116 2 91 100 150 245
116 2 92 100 150 245
116 2 93 100 150 245
116 2 94 100 150 245
116 2 95 100 150 245
116 2 96 100 150 245
116 2 97 100 150 245
116 2 98 100 150 245
116 2 99 100 150 245
116 2 100 100 150 245
116 2 101 100 150 245
116 2 102 100 150 245
116 2 103 100 150 245
116 2 104 100 150 245
116 2 105 100 150 245
116 2 106 100 150 245
116 2 107 100 150 245
116 2 108 100 150 245
116 2 109 100 150 245
116 2 110 100 150 245
116 2 111 100 150 245
116 2 112 100 150 245
116 2 113 100 150 245
116 2 114 100 150 245
116 2 115 100 150 245
116 2 116 100 150 245
116 2 117 100 150 245
116 2 118 100 150 245
116 2 119 100 150 245
116 2 120 100 150 245
116 2 121 100 150 245
116 2 122 100 150 245
116 2 123 100 150 245
116 2 124 100 150 245
116 2 125 100 150 245
116 3 55 100 150 245
116 3 56 100 150 245
116 3 57 100 150 245
116 3 58 100 150 245
116 3 59 100 150 245
116 3 60 100 150 245
116 3 61 100 150 245
116 3 62 100 150 245
116 3 63 100 150 245
116 3 64 100 150 245
116 3 65 100 150 245
116 3 66 100 150 245
116 3 67 100 150 245
116 3 68 100 150 245
116 3 69 100 150 245
116 3 70 100 150 245
116 3 71 100 150 245
116 3 72 100 150 245
116 3 73 100 150 245
116 3 74 100 150 245
116 3 75 100 150 245
116 3 76 100 150 245
116 3 77 100 150 245
116 3 78 100 150 245
116 3 79 100 150 245
116 3 80 100 150 245
116 3 81 100 150 245
116 3 82 100 150 245
116 3 83 100 150 245
116 3 84 100 150 245
116 3 85 100 150 245
116 3 86 100 150 245
116 3 87 100 150 245
116 3 88 100 150 245
116 3 89 100 150 245
116 3 90 100 150 245
116 3 91 100 150 245
116 3 92 100 150 245
116 3 93 100 150 245
116 3 94 100 150 245
116 3 95 100 150 245
116 3 96 100 150 245
116 3 97 100 150 245
116 3 98 100 150 245
116 3 99 100 150 245
116 3 100 100 150 245
116 3 101 100 150 245
116 3 102 100 150 245
116 3 103 100 150 245
116 3 104 100 150 245
116 3 105 100 150 245
116 3 106 100 150 245
116 3 107 100 150 245
116 3 108 100 150 245
116 3 109 100 150 245
116 3 110 100 150 245
116 3 111 100 150 245
116 3 112 100 150 245
116 3 113 100 150 245
116 3 114 100 150 245
116 3 115 100 150 245
116 3 116 100 150 245
116 3 117 100 150 245
116 3 118 100 150 245
116 3 119 100 150 245
116 3 120 100 150 245
116 3 121 100 150 245
116 3 122 100 150 245
116 3 123 100 150 245
116 3 124 100 150 245
116 3 125 100 150 245
116 3 126 100 150 245
116 4 63 100 150 245
116 4 64 100 150 245
116 4 65 100 150 245
116 4 66 100 150 245
116 4 67 100 150 245
116 4 68 100 150 245
116 4 69 100 150 245
116 4 70 100 150 245
116 4 71 100 150 245
116 4 72 100 150 245
116 4 73 100 150 245
116 4 74 100 150 245
116 4 75 100 150 245
116 4 76 100 150 245
116 4 77 100 150 245
116 4 78 100 150 245
116 4 79 100 150 245
116 4 80 100 150 245
116 4 81 100 150 245
116 4 82 100 150 245
116 4 83 100 150 245
116 4 84 100 150 245
116 4 85 100 150 245
116 4 86 100 150 245
116 4 87 100 150 245
116 4 88 100 150 245
116 4 89 100 150 245
116 4 90 100 150 245
116 4 91 100 150 245
116 4 92 100 150 245
116 4 93 100 150 245
116 4 94 100 150 245
116 4 95 100 150 245
116 4 96 100 150 245
116 4 97 100 150 245
116 4 98 100 150 245
116 4 99 100 150 245
116 4 100 100 150 245
116 4 101 100 150 245
116 4 102 100 150 245
116 4 103 100 150 245
116 4 104 100 150 245
116 4 105 100 150 245
116 4 106 100 150 245
116 4 107 100 150 245
116 4 108 100 150 245
116 4 109 100 150 245
116 4 110 100 150 245
116 4 111 100 150 245
116 4 112 100 150 245
116 4 113 100 150 245
116 4 114 100 150 245
116 4 115 100 150 245
116 4 116 100 150 245
116 4 117 100 150 245
116 4 118 100 150 245
116 4 119 100 150 245
116 4 120 100 150 245
116 4 121 100 150 245
116 4 122 100 150 245
116 4 123 100 150 245
116 4 124 100 150 245
116 5 55 100 150 245
116 5 58 100 150 245
116 5 59 100 150 245
116 5 60 100 150 245
116 5 61 100 150 245
116 5 62 100 150 245
116 5 63 100 150 245
116 5 66 100 150 245
116 5 67 100 150 245
116 5 68 100 150 245
116 5 75 100 150 245
116 5 76 100 150 245
116 5 77 100 150 245
116 5 78 100 150 245
116 5 79 100 150 245
116 5 80 100 150 245
116 5 81 100 150 245
116 5 82 100 150 245
116 5 83 100 150 245
116 5 84 100 150 245
116 5 85 100 150 245
116 5 86 100 150 245
116 5 87 100 150 245
116 5 88 100 150 245
116 5 92 100 150 245
116 5 93 100 150 245
116 5 94 100 150 245
116 5 95 100 150 245
116 5 96 100 150 245
116 5 97 100 150 245
116 5 98 100 150 245
116 5 99 100 150 245
116 5 100 100 150 245
116 5 101 100 150 245
116 5 102 100 150 245
116 5 103 100 150 245
116 5 104 100 150 245
116 5 105 100 150 245
116 5 106 100 150 245
116 5 107 100 150 245
116 5 108 100 150 245
116 5 109 100 150 245
116 5 110 100 150 245
116 5 111 100 150 245
116 5 112 100 150 245
116 5 113 100 150 245
116 5 114 100 150 245
116 5 115 100 150 245
116 5 116 100 150 245
116 5 117 100 150 245
116 5 118 100 150 245
116 5 119 100 150 245
116 5 120 100 150 245
116 5 121 100 150 245
116 5 122 100 150 245
116 5 123 100 150 245
116 5 124 100 150 245
116 5 125 100 150 245
116 6 66 100 150 245
116 6 75 100 150 245
116 6 76 100 150 245
116 6 77 100 150 245
116 6 78 100 150 245
116 6 79 100 150 245
116 6 80 100 150 245
116 6 81 100 150 245
116 6 82 100 150 245
116 6 83 100 150 245
116 6 84 100 150 245
116 6 85 100 150 245
116 6 86 100 150 245
116 6 87 100 150 245
116 6 88 100 150 245
116 6 92 100 150 245
116 6 93 100 150 245
116 6 94 100 150 245
116 6 95 100 150 245
116 6 96 100 150 245
116 6 97 100 150 245
116 6 98 100 150 245
116 6 99 100 150 245
116 6 100 100 150 245
116 6 101 100 150 245
116 6 102 100 150 245
116 6 103 100 150 245
116 6 104 100 150 245
116 6 105 100 150 245
116 6 106 100 150 245
116 6 107 100 150 245
116 6 108 100 150 245
116 6 109 100 150 245
116 6 110 100 150 245
116 6 111 100 150 245
116 6 112 100 150 245
116 6 113 100 150 245
116 6 114 100 150 245
116 6 115 100 150 245
116 6 116 100 150 245
116 6 117 100 150 245
116 6 118 100 150 245
116 6 119 100 150 245
116 6 120 100 150 245
116 6 121 100 150 245
116 6 122 100 150 245
116 6 123 100 150 245
116 6 124 100 150 245
116 6 125 100 150 245
116 6 126 100 150 245
116 7 54 100 150 245
116 7 75 100 150 245
116 7 76 100 150 245
116 7 77 100 150 245
116 7 78 100 150 245
116 7 79 100 150 245
116 7 82 100 150 245
116 7 83 100 150 245
116 7 84 100 150 245
116 7 85 100 150 245
116 7 92 100 150 245
116 7 93 100 150 245
116 7 94 100 150 245
116 7 95 100 150 245
116 7 96 100 150 245
116 7 97 100 150 245
116 7 98 100 150 245
116 7 99 100 150 245
116 7 100 100 150 245
116 7 101 100 150 245
116 7 102 100 150 245
116 7 103 100 150 245
116 7 104 100 150 245
116 7 105 100 150 245
116 7 106 100 150 245
116 7 107 100 150 245
116 7 108 100 150 245
116 7 109 100 150 245
116 7 110 100 150 245
116 7 111 100 150 245
116 7 112 100 150 245
116 7 113 100 150 245
116 7 114 100 150 245
116 7 115 100 150 245
116 7 116 100 150 245
116 7 117 100 150 245
116 7 118 100 150 245
116 7 119 100 150 245
116 7 120 100 150 245
116 7 121 100 150 245
116 7 122 100 150 245
116 7 123 100 150 245
116 7 124 100 150 245
116 7 125 100 150 245
116 7 126 100 150 245
116 8 54 100 150 245
116 8 62 100 150 245
116 8 63 100 150 245
116 8 72 100 150 245
116 8 73 100 150 245
116 8 75 100 150 245
116 8 76 100 150 245
116 8 77 100 150 245
116 8 78 100 150 245
116 8 79 100 150 245
116 8 80 100 150 245
116 8 81 100 150 245
116 8 82 100 150 245
116 8 92 100 150 245
116 8 93 100 150 245
116 8 94 100 150 245
116 8 95 100 150 245
116 8 96 100 150 245
116 8 97 100 150 245
116 8 98 100 150 245
116 8 99 100 150 245
116 8 100 100 150 245
116 8 101 100 150 245
116 8 102 100 150 245
116 8 103 100 150 245
116 8 104 100 150 245
116 8 105 100 150 245
116 8 106 100 150 245
116 8 107 100 150 245
116 8 108 100 150 245
116 8 109 100 150 245
116 8 110 100 150 245
116 8 111 100 150 245
116 8 112 100 150 245
116 8 113 100 150 245
116 8 114 100 150 245
116 8 115 100 150 245
116 8 116 100 150 245
116 8 117 100 150 245
116 8 118 100 150 245
116 8 119 100 150 245
116 8 120 100 150 245
116 8 121 100 150 245
116 8 122 100 150 245
116 8 123 100 150 245
116 8 124 100 150 245
116 8 125 100 150 245
116 8 126 100 150 245
116 9 55 100 150 245
116 9 56 100 150 245
116 9 57 100 150 245
116 9 58 100 150 245
116 9 59 100 150 245
116 9 60 100 150 245
116 9 61 100 150 245
116 9 62 100 150 245
116 9 63 100 150 245
116 9 64 100 150 245
116 9 65 100 150 245
116 9 71 100 150 245
116 9 72 100 150 245
116 9 73 100 150 245
116 9 76 100 150 245
116 9 77 100 150 245
116 9 78 100 150 245
116 9 79 100 150 245
116 9 80 100 150 245
116 9 81 100 150 245
116 9 88 100 150 245
116 9 92 100 150 245
116 9 93 100 150 245
116 9 94 100 150 245
116 9 95 100 150 245
116 9 96 100 150 245
116 9 97 100 150 245
116 9 98 100 150 245
116 9 99 100 150 245
116 9 100 100 150 245
116 9 101 100 150 245
116 9 102 100 150 245
116 9 103 100 150 245
116 9 104 100 150 245
116 9 105 100 150 245
116 9 106 100 150 245
116 9 107 100 150 245
116 9 108 100 150 245
116 9 109 100 150 245
116 9 110 100 150 245
116 9 111 100 150 245
116 9 112 100 150 245
116 9 113 100 150 245
116 9 114 100 150 245
116 9 115 100 150 245
116 9 116 100 150 245
116 9 117 100 150 245
116 9 118 100 150 245
116 9 119 100 150 245
116 9 120 100 150 245
116 9 121 100 150 245
116 9 122 100 150 245
116 9 123 100 150 245
116 9 124 100 150 245
116 9 125 100 150 245
116 9 126 100 150 245
116 10 56 100 150 245
116 10 57 100 150 245
116 10 58 100 150 245
116 10 59 100 150 245
116 10 60 100 150 245
116 10 61 100 150 245
116 10 63 100 150 245
116 10 64 100 150 245
116 10 65 100 150 245
116 10 66 100 150 245
116 10 71 100 150 245
116 10 72 100 150 245
116 10 73 100 150 245
116 10 76 100 150 245
116 10 77 100 150 245
116 10 78 100 150 245
116 10 79 100 150 245
116 10 80 100 150 245
116 10 86 100 150 245
116 10 87 100 150 245
116 10 89 100 150 245
116 10 90 100 150 245
116 10 91 100 150 245
116 10 92 100 150 245
116 10 93 100 150 245
116 10 94 100 150 245
116 10 95 100 150 245
116 10 96 100 150 245
116 10 97 100 150 245
116 10 98 100 150 245
116 10 99 100 150 245
116 10 100 100 150 245
116 10 101 100 150 245
116 10 102 100 150 245
116 10 103 100 150 245
116 10 104 100 150 245
116 10 105 100 150 245
116 10 106 100 150 245
116 10 107 100 150 245
116 10 108 100 150 245
116 10 109 100 150 245
116 10 110 100 150 245
116 10 111 100 150 245
116 10 112 100 150 245
116 10 113 100 150 245
116 10 114 100 150 245
116 10 116 100 150 245
116 10 117 100 150 245
116 10 118 100 150 245
116 10 119 100 150 245
116 10 120 100 150 245
116 10 121 100 150 245
116 10 122 100 150 245
116 10 123 100 150 245
116 10 124 100 150 245
116 10 125 100 150 245
116 10 126 100 150 245
116 10 127 100 150 245
116 11 55 100 150 245
116 11 56 100 150 245
116 11 57 100 150 245
116 11 58 100 150 245
116 11 59 100 150 245
116 11 60 100 150 245
116 11 61 100 150 245
116 11 63 100 150 245
116 11 64 100 150 245
116 11 65 100 150 245
116 11 66 100 150 245
116 11 67 100 150 245
116 11 68 100 150 245
116 11 69 100 150 245
116 11 70 100 150 245
116 11 71 100 150 245
116 11 72 100 150 245
116 11 73 100 150 245
116 11 76 100 150 245
116 11 77 100 150 245
116 11 78 100 150 245
116 11 79 100 150 245
116 11 80 100 150 245
116 11 81 100 150 245
116 11 82 100 150 245
116 11 83 100 150 245
116 11 88 100 150 245
116 11 89 100 150 245
116 11 90 100 150 245
116 11 91 100 150 245
116 11 92 100 150 245
116 11 93 100 150 245
116 11 94 100 150 245
116 11 95 100 150 245
116 11 96 100 150 245
116 11 97 100 150 245
116 11 98 100 150 245
116 11 99 100 150 245
116 11 100 100 150 245
116 11 101 100 150 245
116 11 102 100 150 245
116 11 104 100 150 245
116 11 105 100 150 245
116 11 106 100 150 245
116 11 107 100 150 245
116 11 108 100 150 245
116 11 109 100 150 245
116 11 110 100 150 245
116 11 111 100 150 245
116 11 112 100 150 245
116 11 113 100 150 245
116 11 114 100 150 245
116 11 115 100 150 245
116 11 116 100 150 245
116 11 117 100 150 245
116 11 118 100 150 245
116 11 119 100 150 245
116 11 120 100 150 245
116 11 121 100 150 245
116 11 122 100 150 245
116 11 123 100 150 245
116 11 124 100 150 245
116 11 125 100 150 245
116 11 126 100 150 245
116 11 127 100 150 245
116 12 64 100 150 245
116 12 65 100 150 245
116 12 66 100 150 245
116 12 67 100 150 245
116 12 68 100 150 245
116 12 69 100 150 245
116 12 70 100 150 245
116 12 71 100 150 245
116 12 72 100 150 245
116 12 73 100 150 245
116 12 74 100 150 245
116 12 76 100 150 245
116 12 77 100 150 245
116 12 78 100 150 245
116 12 79 100 150 245
116 12 80 100 150 245
116 12 81 100 150 245
116 12 82 100 150 245
116 12 83 100 150 245
116 12 84 100 150 245
116 12 85 100 150 245
116 12 86 100 150 245
116 12 90 100 150 245
116 12 91 100 150 245
116 12 92 100 150 245
116 12 121 100 150 245
116 12 122 100 150 245
116 12 123 100 150 245
116 12 126 100 150 245
116 12 127 100 150 245
116 13 74 100 150 245
116 13 75 100 150 245
116 13 76 100 150 245
116 13 77 100 150 245
116 13 78 100 150 245
116 13 79 100 150 245
116 13 80 100 150 245
116 13 81 100 150 245
116 13 82 100 150 245
116 13 83 100 150 245
116 13 84 100 150 245
116 13 85 100 150 245
117 0 40 100 150 245
117 0 41 100 150 245
117 0 49 100 150 245
117 0 60 100 150 245
117 0 61 100 150 245
117 0 62 100 150 245
117 0 63 100 150 245
117 0 64 100 150 245
117 0 65 100 150 245
117 0 66 100 150 245
117 0 67 100 150 245
117 0 68 100 150 245
117 0 69 100 150 245
117 0 70 100 150 245
117 0 71 100 150 245
117 0 72 100 150 245
117 0 73 100 150 245
117 0 74 100 150 245
117 0 75 100 150 245
117 0 76 100 150 245
117 0 77 100 150 245
117 0 78 100 150 245
117 0 79 100 150 245
117 0 80 100 150 245
117 0 81 100 150 245
117 0 82 100 150 245
117 0 83 100 150 245
117 0 84 100 150 245
117 0 85 100 150 245
117 0 86 100 150 245
117 0 87 100 150 245
117 0 88 100 150 245
117 0 89 100 150 245
117 0 90 100 150 245
117 0 91 100 150 245
117 0 92 100 150 245
117 0 93 100 150 245
117 0 94 100 150 245
117 0 95 100 150 245
117 0 96 100 150 245
117 0 97 100 150 245
117 0 98 100 150 245
117 0 99 100 150 245
117 0 100 100 150 245
117 0 101 100 150 245
117 0 102 100 150 245
117 0 103 100 150 245
117 0 104 100 150 245
117 0 105 100 150 245
117 0 106 100 150 245
117 0 107 100 150 245
117 0 108 100 150 245
117 0 109 100 150 245
117 0 110 100 150 245
117 0 111 100 150 245
117 0 112 100 150 245
117 0 113 100 150 245
117 0 114 100 150 245
117 0 115 100 150 245
117 0 116 100 150 245
117 0 117 100 150 245
117 0 118 100 150 245
117 0 119 100 150 245
117 0 120 100 150 245
117 0 121 100 150 245
117 0 122 100 150 245
117 0 123 100 150 245
117 0 124 100 150 245
117 0 125 100 150 245
117 0 126 100 150 245
117 0 127 100 150 245
117 1 40 100 150 245
117 1 41 100 150 245
117 1 62 100 150 245
117 1 63 100 150 245
117 1 64 100 150 245
117 1 65 100 150 245
117 1 66 100 150 245
117 1 67 100 150 245
117 1 68 100 150 245
117 1 69 100 150 245
117 1 70 100 150 245
117 1 71 100 150 245
117 1 72 100 150 245
117 1 73 100 150 245
117 1 74 100 150 245
117 1 75 100 150 245
117 1 76 100 150 245
117 1 77 100 150 245
117 1 78 100 150 245
117 1 79 100 150 245
117 1 80 100 150 245
117 1 81 100 150 245
117 1 82 100 150 245
117 1 83 100 150 245
117 1 84 100 150 245
117 1 85 100 150 245
117 1 86 100 150 245
117 1 87 100 150 245
117 1 88 100 150 245
117 1 89 100 150 245
117 1 90 100 150 245
117 1 91 100 150 245
117 1 92 100 150 245
117 1 93 100 150 245
117 1 94 100 150 245
117 1 95 100 150 245
117 1 96 100 150 245
117 1 97 100 150 245
117 1 98 100 150 245
117 1 99 100 150 245
117 1 100 100 150 245
117 1 101 100 150 245
117 1 102 100 150 245
117 1 103 100 150 245
117 1 104 100 150 245
117 1 105 100 150 245
117 1 106 100 150 245
117 1 107 100 150 245
117 1 108 100 150 245
117 1 109 100 150 245
117 1 110 100 150 245
117 1 111 100 150 245
117 1 112 100 150 245
117 1 113 100 150 245
117 1 114 100 150 245
117 1 115 100 150 245
117 1 116 100 150 245
117 1 117 100 150 245
117 1 118 100 150 245
117 1 119 100 150 245
117 1 120 100 150 245
117 1 121 100 150 245
117 1 122 100 150 245
117 1 123 100 150 245
117 1 124 100 150 245
117 1 125 100 150 245
117 1 126 100 150 245
117 1 127 100 150 245
117 2 40 100 150 245
117 2 58 100 150 245
117 2 59 100 150 245
117 2 60 100 150 245
117 2 61 100 150 245
117 2 62 100 150 245
117 2 63 100 150 245
117 2 64 100 150 245
117 2 65 100 150 245
117 2 66 100 150 245
117 2 67 100 150 245
117 2 68 100 150 245
117 2 69 100 150 245
117 2 70 100 150 245
117 2 71 100 150 245
117 2 72 100 150 245
117 2 73 100 150 245
117 2 74 100 150 245
117 2 75 100 150 245
117 2 76 100 150 245
117 2 77 100 150 245
117 2 78 100 150 245
117 2 79 100 150 245
117 2 80 100 150 245
117 2 81 100 150 245
117 2 82 100 150 245
117 2 83 100 150 245
117 2 84 100 150 245
117 2 85 100 150 245
117 2 86 100 150 245
117 2 87 100 150 245
117 2 88 100 150 245
117 2 89 100 150 245
117 2 90 100 150 245
117 2 91 100 150 245
117 2 92 100 150 245
117 2 93 100 150 245
117 2 94 100 150 245
117 2 95 100 150 245
117 2 96 100 150 245
117 2 97 100 150 245
117 2 98 100 150 245
117 2 99 100 150 245
117 2 100 100 150 245
117 2 101 100 150 245
117 2 102 100 150 245
117 2 103 100 150 245
117 2 104 100 150 245
117 2 105 100 150 245
117 2 106 100 150 245
117 2 107 100 150 245
117 2 108 100 150 245
117 2 109 100 150 245
117 2 110 100 150 245
117 2 111 100 150 245
117 2 112 100 150 245
117 2 113 100 150 245
117 2 114 100 150 245
117 2 115 100 150 245
117 2 116 100 150 245
117 2 117 100 150 245
117 2 118 100 150 245
117 2 119 100 150 245
117 2 120 100 150 245
117 2 121 100 150 245
117 2 122 100 150 245
117 2 123 100 150 245
117 2 124 100 150 245
117 2 125 100 150 245
117 2 126 100 150 245
117 3 58 100 150 245
117 3 59 100 150 245
117 3 60 100 150 245
117 3 61 100 150 245
117 3 62 100 150 245
117 3 63 100 150 245
117 3 64 100 150 245
117 3 65 100 150 245
117 3 66 100 150 245
117 3 67 100 150 245
117 3 68 100 150 245
117 3 69 100 150 245
117 3 70 100 150 245
117 3 71 100 150 245
117 3 72 100 150 245
117 3 73 100 150 245
117 3 74 100 150 245
117 3 75 100 150 245
117 3 76 100 150 245
117 3 77 100 150 245
117 3 78 100 150 245
117 3 79 100 150 245
117 3 80 100 150 245
117 3 81 100 150 245
117 3 82 100 150 245
117 3 83 100 150 245
117 3 84 100 150 245
117 3 85 100 150 245
117 3 86 100 150 245
117 3 87 100 150 245
117 3 88 100 150 245
117 3 89 100 150 245
117 3 90 100 150 245
117 3 91 100 150 245
117 3 92 100 150 245
117 3 93 100 150 245
117 3 94 100 150 245
117 3 95 100 150 245
117 3 96 100 150 245
117 3 97 100 150 245
117 3 98 100 150 245
117 3 99 100 150 245
117 3 100 100 150 245
117 3 101 100 150 245
117 3 102 100 150 245
117 3 103 100 150 245
117 3 104 100 150 245
117 3 105 100 150 245
117 3 106 100 150 245
117 3 107 100 150 245
117 3 108 100 150 245
117 3 109 100 150 245
117 3 110 100 150 245
117 3 111 100 150 245
117 3 112 100 150 245
117 3 113 100 150 245
117 3 114 100 150 245
117 3 115 100 150 245
117 3 116 100 150 245
117 3 117 100 150 245
117 3 118 100 150 245
117 3 119 100 150 245
117 3 120 100 150 245
117 3 121 100 150 245
117 3 122 100 150 245
117 3 123 100 150 245
117 3 124 100 150 245
117 3 125 100 150 245
117 3 126 100 150 245
117 4 66 100 150 245
117 4 67 100 150 245
117 4 68 100 150 245
117 4 69 100 150 245
117 4 70 100 150 245
117 4 71 100 150 245
117 4 72 100 150 245
117 4 73 100 150 245
117 4 74 100 150 245
117 4 75 100 150 245
117 4 76 100 150 245
117 4 77 100 150 245
117 4 78 100 150 245
117 4 79 100 150 245
117 4 80 100 150 245
117 4 81 100 150 245
117 4 82 100 150 245
117 4 83 100 150 245
117 4 84 100 150 245
117 4 85 100 150 245
117 4 86 100 150 245
117 4 87 100 150 245
117 4 88 100 150 245
117 4 89 100 150 245
117 4 90 100 150 245
117 4 91 100 150 245
117 4 92 100 150 245
117 4 93 100 150 245
117 4 94 100 150 245
117 4 95 100 150 245
117 4 96 100 150 245
117 4 97 100 150 245
117 4 98 100 150 245
117 4 99 100 150 245
117 4 100 100 150 245
117 4 101 100 150 245
117 4 102 100 150 245
117 4 103 100 150 245
117 4 104 100 150 245
117 4 105 100 150 245
117 4 106 100 150 245
117 4 107 100 150 245
117 4 108 100 150 245
117 4 109 100 150 245
117 4 110 100 150 245
117 4 111 100 150 245
117 4 112 100 150 245
117 4 113 100 150 245
117 4 114 100 150 245
117 4 115 100 150 245
117 4 116 100 150 245
117 4 117 100 150 245
117 4 118 100 150 245
117 4 119 100 150 245
117 4 120 100 150 245
117 4 121 100 150 245
117 4 122 100 150 245
117 4 123 100 150 245
117 4 124 100 150 245
117 4 125 100 150 245
117 5 62 100 150 245
117 5 63 100 150 245
117 5 66 100 150 245
117 5 67 100 150 245
117 5 71 100 150 245
117 5 72 100 150 245
117 5 73 100 150 245
117 5 75 100 150 245
117 5 76 100 150 245
117 5 77 100 150 245
117 5 78 100 150 245
117 5 79 100 150 245
117 5 80 100 150 245
117 5 81 100 150 245
117 5 82 100 150 245
117 5 83 100 150 245
117 5 84 100 150 245
117 5 85 100 150 245
117 5 86 100 150 245
117 5 87 100 150 245
117 5 88 100 150 245
117 5 89 100 150 245
117 5 92 100 150 245
117 5 93 100 150 245
117 5 94 100 150 245
117 5 95 100 150 245
117 5 96 100 150 245
117 5 97 100 150 245
117 5 98 100 150 245
117 5 99 100 150 245
117 5 100 100 150 245
117 5 101 100 150 245
117 5 102 100 150 245
117 5 103 100 150 245
117 5 104 100 150 245
117 5 105 100 150 245
117 5 106 100 150 245
117 5 107 100 150 245
117 5 108 100 150 245
117 5 109 100 150 245
117 5 110 100 150 245
117 5 111 100 150 245
117 5 112 100 150 245
117 5 113 100 150 245
117 5 114 100 150 245
117 5 115 100 150 245
117 5 116 100 150 245
117 5 117 100 150 245
117 5 118 100 150 245
117 5 119 100 150 245
117 5 120 100 150 245
117 5 121 100 150 245
117 5 122 100 150 245
117 5 123 100 150 245
117 5 124 100 150 245
117 5 125 100 150 245
117 5 126 100 150 245
117 6 67 100 150 245
117 6 72 100 150 245
117 6 73 100 150 245
117 6 75 100 150 245
117 6 76 100 150 245
117 6 77 100 150 245
117 6 78 100 150 245
117 6 79 100 150 245
117 6 80 100 150 245
117 6 81 100 150 245
117 6 82 100 150 245
117 6 83 100 150 245
117 6 84 100 150 245
117 6 85 100 150 245
117 6 86 100 150 245
117 6 87 100 150 245
117 6 88 100 150 245
117 6 91 100 150 245
117 6 92 100 150 245
117 6 93 100 150 245
117 6 94 100 150 245
117 6 95 100 150 245
117 6 96 100 150 245
117 6 97 100 150 245
117 6 98 100 150 245
117 6 99 100 150 245
117 6 100 100 150 245
117 6 101 100 150 245
117 6 102 100 150 245
117 6 103 100 150 245
117 6 104 100 150 245
117 6 105 100 150 245
117 6 106 100 150 245
117 6 107 100 150 245
117 6 108 100 150 245
117 6 109 100 150 245
117 6 110 100 150 245
117 6 111 100 150 245
117 6 112 100 150 245
117 6 113 100 150 245
117 6 114 100 150 245
117 6 115 100 150 245
117 6 116 100 150 245
117 6 117 100 150 245
117 6 118 100 150 245
117 6 119 100 150 245
117 6 120 100 150 245
117 6 121 100 150 245
117 6 122 100 150 245
117 6 123 100 150 245
117 6 124 100 150 245
117 6 125 100 150 245
117 6 126 100 150 245
117 6 127 100 150 245
117 7 54 100 150 245
117 7 55 100 150 245
117 7 72 100 150 245
117 7 73 100 150 245
117 7 75 100 150 245
117 7 76 100 150 245
117 7 77 100 150 245
117 7 78 100 150 245
117 7 79 100 150 245
117 7 80 100 150 245
117 7 81 100 150 245
117 7 82 100 150 245
117 7 83 100 150 245
117 7 84 100 150 245
117 7 85 100 150 245
117 7 86 100 150 245
117 7 87 100 150 245
117 7 88 100 150 245
117 7 92 100 150 245
117 7 93 100 150 245
117 7 94 100 150 245
117 7 95 100 150 245
117 7 96 100 150 245
117 7 97 100 150 245
117 7 98 100 150 245
117 7 99 100 150 245
117 7 100 100 150 245
117 7 101 100 150 245
117 7 102 100 150 245
117 7 103 100 150 245
117 7 104 100 150 245
117 7 105 100 150 245
117 7 106 100 150 245
117 7 107 100 150 245
117 7 108 100 150 245
117 7 109 100 150 245
117 7 110 100 150 245
117 7 111 100 150 245
117 7 112 100 150 245
117 7 113 100 150 245
117 7 114 100 150 245
117 7 115 100 150 245
117 7 116 100 150 245
117 7 117 100 150 245
117 7 118 100 150 245
117 7 119 100 150 245
117 7 120 100 150 245
117 7 121 100 150 245
117 7 122 100 150 245
117 7 123 100 150 245
117 7 124 100 150 245
117 7 125 100 150 245
117 7 126 100 150 245
117 7 127 100 150 245
117 8 54 100 150 245
117 8 55 100 150 245
117 8 63 100 150 245
117 8 71 100 150 245
117 8 72 100 150 245
117 8 73 100 150 245
117 8 74 100 150 245
117 8 75 100 150 245
117 8 76 100 150 245
117 8 77 100 150 245
117 8 78 100 150 245
117 8 79 100 150 245
117 8 80 100 150 245
117 8 81 100 150 245
117 8 82 100 150 245
117 8 83 100 150 245
117 8 91 100 150 245
117 8 92 100 150 245
117 8 93 100 150 245
117 8 94 100 150 245
117 8 95 100 150 245
117 8 96 100 150 245
117 8 97 100 150 245
117 8 98 100 150 245
117 8 99 100 150 245
117 8 100 100 150 245
117 8 101 100 150 245
117 8 102 100 150 245
117 8 103 100 150 245
117 8 104 100 150 245
117 8 105 100 150 245
117 8 106 100 150 245
117 8 107 100 150 245
117 8 108 100 150 245
117 8 109 100 150 245
117 8 110 100 150 245
117 8 111 100 150 245
117 8 112 100 150 245
117 8 113 100 150 245
117 8 114 100 150 245
117 8 115 100 150 245
117 8 116 100 150 245
117 8 117 100 150 245
117 8 118 100 150 245
117 8 119 100 150 245
117 8 120 100 150 245
117 8 121 100 150 245
117 8 122 100 150 245
117 8 123 100 150 245
117 8 124 100 150 245
117 8 125 100 150 245
117 8 126 100 150 245
117 8 127 100 150 245
117 9 55 100 150 245
117 9 56 100 150 245
117 9 57 100 150 245
117 9 58 100 150 245
117 9 59 100 150 245
117 9 60 100 150 245
117 9 61 100 150 245
117 9 62 100 150 245
117 9 63 100 150 245
117 9 64 100 150 245
117 9 65 100 150 245
117 9 66 100 150 245
117 9 71 100 150 245
117 9 72 100 150 245
117 9 73 100 150 245
117 9 75 100 150 245
117 9 76 100 150 245
117 9 77 100 150 245
117 9 78 100 150 245
117 9 79 100 150 245
117 9 80 100 150 245
117 9 81 100 150 245
117 9 82 100 150 245
117 9 91 100 150 245
117 9 92 100 150 245
117 9 93 100 150 245
117 9 94 100 150 245
117 9 95 100 150 245
117 9 96 100 150 245
117 9 97 100 150 245
117 9 98 100 150 245
117 9 99 100 150 245
117 9 100 100 150 245
117 9 101 100 150 245
117 9 102 100 150 245
117 9 103 100 150 245
117 9 104 100 150 245
117 9 105 100 150 245
117 9 106 100 150 245
117 9 107 100 150 245
117 9 108 100 150 245
117 9 109 100 150 245
117 9 110 100 150 245
117 9 111 100 150 245
117 9 112 100 150 245
117 9 113 100 150 245
117 9 114 100 150 245
117 9 115 100 150 245
117 9 116 100 150 245
117 9 117 100 150 245
117 9 118 100 150 245
117 9 119 100 150 245
117 9 120 100 150 245
117 9 121 100 150 245
117 9 122 100 150 245
117 9 123 100 150 245
117 9 124 100 150 245
117 9 125 100 150 245
117 9 126 100 150 245
117 9 127 100 150 245
117 10 51 100 150 245
117 10 55 100 150 245
117 10 56 100 150 245
117 10 57 100 150 245
117 10 58 100 150 245
117 10 59 100 150 245
117 10 60 100 150 245
117 10 61 100 150 245
117 10 62 100 150 245
117 10 63 100 150 245
117 10 64 100 150 245
117 10 65 100 150 245
117 10 67 100 150 245
117 10 71 100 150 245
117 10 73 100 150 245
117 10 76 100 150 245
117 10 77 100 150 245
117 10 78 100 150 245
117 10 79 100 150 245
117 10 80 100 150 245
117 10 81 100 150 245
117 10 87 100 150 245
117 10 88 100 150 245
117 10 91 100 150 245
117 10 92 100 150 245
117 10 93 100 150 245
117 10 94 100 150 245
117 10 95 100 150 245
117 10 96 100 150 245
117 10 97 100 150 245
117 10 98 100 150 245
117 10 99 100 150 245
117 10 100 100 150 245
117 10 101 100 150 245
117 10 102 100 150 245
117 10 103 100 150 245
117 10 104 100 150 245
117 10 105 100 150 245
117 10 106 100 150 245
117 10 107 100 150 245
117 10 108 100 150 245
117 10 109 100 150 245
117 10 110 100 150 245
117 10 111 100 150 245
117 10 112 100 150 245
117 10 113 100 150 245
117 10 114 100 150 245
117 10 116 100 150 245
117 10 117 100 150 245
117 10 118 100 150 245
117 10 119 100 150 245
117 10 120 100 150 245
117 10 121 100 150 245
117 10 122 100 150 245
117 10 123 100 150 245
117 10 124 100 150 245
117 10 125 100 150 245
117 10 126 100 150 245
117 10 127 100 150 245
117 11 56 100 150 245
117 11 57 100 150 245
117 11 58 100 150 245
117 11 59 100 150 245
117 11 60 100 150 245
117 11 61 100 150 245
117 11 63 100 150 245
117 11 64 100 150 245
117 11 65 100 150 245
117 11 66 100 150 245
117 11 67 100 150 245
117 11 69 100 150 245
117 11 70 100 150 245
117 11 71 100 150 245
117 11 72 100 150 245
117 11 73 100 150 245
117 11 75 100 150 245
117 11 76 100 150 245
117 11 77 100 150 245
117 11 78 100 150 245
117 11 79 100 150 245
117 11 80 100 150 245
117 11 81 100 150 245
117 11 82 100 150 245
117 11 83 100 150 245
117 11 84 100 150 245
117 11 85 100 150 245
117 11 89 100 150 245
117 11 92 100 150 245
117 11 93 100 150 245
117 11 94 100 150 245
117 11 95 100 150 245
117 11 96 100 150 245
117 11 97 100 150 245
117 11 98 100 150 245
117 11 99 100 150 245
117 11 100 100 150 245
117 11 101 100 150 245
117 11 102 100 150 245
117 11 105 100 150 245
117 11 106 100 150 245
117 11 107 100 150 245
117 11 108 100 150 245
117 11 109 100 150 245
117 11 110 100 150 245
117 11 111 100 150 245
117 11 112 100 150 245
117 11 113 100 150 245
117 11 114 100 150 245
117 11 115 100 150 245
117 11 116 100 150 245
117 11 117 100 150 245
117 11 118 100 150 245
117 11 119 100 150 245
117 11 120 100 150 245
117 11 121 100 150 245
117 11 122 100 150 245
117 11 123 100 150 245
117 11 124 100 150 245
117 11 125 100 150 245
117 11 126 100 150 245
117 11 127 100 150 245
117 12 65 100 150 245
117 12 66 100 150 245
117 12 67 100 150 245
117 12 68 100 150 245
117 12 69 100 150 245
117 12 70 100 150 245
117 12 71 100 150 245
117 12 72 100 150 245
117 12 73 100 150 245
117 12 74 100 150 245
117 12 75 100 150 245
117 12 76 100 150 245
117 12 77 100 150 245
117 12 78 100 150 245
117 12 79 100 150 245
117 12 80 100 150 245
117 12 81 100 150 245
117 12 82 100 150 245
117 12 83 100 150 245
117 12 84 100 150 245
117 12 85 100 150 245
117 12 86 100 150 245
117 12 87 100 150 245
117 12 88 100 150 245
117 12 89 100 150 245
117 12 91 100 150 245
117 12 92 100 150 245
117 12 93 100 150 245
117 12 95 100 150 245
117 12 96 100 150 245
117 12 97 100 150 245
117 12 98 100 150 245
117 12 99 100 150 245
117 12 100 100 150 245
117 12 101 100 150 245
117 12 107 100 150 245
117 12 121 100 150 245
117 12 122 100 150 245
117 12 123 100 150 245
117 12 124 100 150 245
117 12 126 100 150 245
117 12 127 100 150 245
117 13 74 100 150 245
117 13 75 100 150 245
117 13 76 100 150 245
117 13 77 100 150 245
117 13 78 100 150 245
117 13 79 100 150 245
117 13 80 100 150 245
117 13 81 100 150 245
117 13 82 100 150 245
117 13 83 100 150 245
117 13 84 100 150 245
117 13 85 100 150 245
117 14 85 100 150 245
118 0 39 100 150 245
118 0 40 100 150 245
118 0 41 100 150 245
118 0 63 100 150 245
118 0 64 100 150 245
118 0 66 100 150 245
118 0 67 100 150 245
118 0 68 100 150 245
118 0 69 100 150 245
118 0 70 100 150 245
118 0 71 100 150 245
118 0 72 100 150 245
118 0 73 100 150 245
118 0 74 100 150 245
118 0 75 100 150 245
118 0 76 100 150 245
118 0 77 100 150 245
118 0 78 100 150 245
118 0 79 100 150 245
118 0 80 100 150 245
118 0 81 100 150 245
118 0 82 100 150 245
118 0 83 100 150 245
118 0 84 100 150 245
118 0 85 100 150 245
118 0 86 100 150 245
118 0 87 100 150 245
118 0 88 100 150 245
118 0 89 100 150 245
118 0 90 100 150 245
118 0 91 100 150 245
118 0 92 100 150 245
118 0 93 100 150 245
118 0 94 100 150 245
118 0 95 100 150 245
118 0 96 100 150 245
118 0 97 100 150 245
118 0 98 100 150 245
118 0 99 100 150 245
118 0 100 100 150 245
118 0 101 100 150 245
118 0 102 100 150 245
118 0 103 100 150 245
118 0 104 100 150 245
118 0 105 100 150 245
118 0 106 100 150 245
118 0 107 100 150 245
118 0 108 100 150 245
118 0 109 100 150 245
118 0 110 100 150 245
118 0 111 100 150 245
118 0 112 100 150 245
118 0 113 100 150 245
118 0 114 100 150 245
118 0 115 100 150 245
118 0 116 100 150 245
118 0 117 100 150 245
118 0 118 100 150 245
118 0 119 100 150 245
118 0 120 100 150 245
118 0 121 100 150 245
118 0 122 100 150 245
118 0 123 100 150 245
118 0 124 100 150 245
118 0 125 100 150 245
118 0 126 100 150 245
118 0 127 100 150 245
118 1 40 100 150 245
118 1 41 100 150 245
118 1 64 100 150 245
118 1 65 100 150 245
118 1 66 100 150 245
118 1 67 100 150 245
118 1 68 100 150 245
118 1 69 100 150 245
118 1 70 100 150 245
118 1 71 100 150 245
118 1 72 100 150 245
118 1 73 100 150 245
118 1 74 100 150 245
118 1 75 100 150 245
118 1 76 100 150 245
118 1 77 100 150 245
118 1 78 100 150 245
118 1 79 100 150 245
118 1 80 100 150 245
118 1 81 100 150 245
118 1 82 100 150 245
118 1 83 100 150 245
118 1 84 100 150 245
118 1 85 100 150 245
118 1 86 100 150 245
118 1 87 100 150 245
118 1 88 100 150 245
118 1 89 100 150 245
118 1 90 100 150 245
118 1 91 100 150 245
118 1 92 100 150 245
118 1 93 100 150 245
118 1 94 100 150 245
118 1 95 100 150 245
118 1 96 100 150 245
118 1 97 100 150 245
118 1 98 100 150 245
118 1 99 100 150 245
118 1 100 100 150 245
118 1 101 100 150 245
118 1 102 100 150 245
118 1 103 100 150 245
118 1 104 100 150 245
118 1 105 100 150 245
118 1 106 100 150 245
118 1 107 100 150 245
118 1 108 100 150 245
118 1 109 100 150 245
118 1 110 100 150 245
118 1 111 100 150 245
118 1 112 100 150 245
118 1 113 100 150 245
118 1 114 100 150 245
118 1 115 100 150 245
118 1 116 100 150 245
118 1 117 100 150 245
118 1 118 100 150 245
118 1 119 100 150 245
118 1 120 100 150 245
118 1 121 100 150 245
118 1 122 100 150 245
118 1 123 100 150 245
118 1 124 100 150 245
118 1 125 100 150 245
118 1 126 100 150 245
118 1 127 100 150 245
118 2 39 100 150 245
118 2 40 100 150 245
118 2 41 100 150 245
118 2 61 100 150 245
118 2 62 100 150 245
118 2 63 100 150 245
118 2 64 100 150 245
118 2 65 100 150 245
118 2 66 100 150 245
118 2 67 100 150 245
118 2 68 100 150 245
118 2 69 100 150 245
118 2 70 100 150 245
118 2 71 100 150 245
118 2 72 100 150 245
118 2 73 100 150 245
118 2 74 100 150 245
118 2 75 100 150 245
118 2 76 100 150 245
118 2 77 100 150 245
118 2 78 100 150 245
118 2 79 100 150 245
118 2 80 100 150 245
118 2 81 100 150 245
118 2 82 100 150 245
118 2 83 100 150 245
118 2 84 100 150 245
118 2 85 100 150 245
118 2 86 100 150 245
118 2 87 100 150 245
118 2 88 100 150 245
118 2 89 100 150 245
118 2 90 100 150 245
118 2 91 100 150 245
118 2 92 100 150 245
118 2 93 100 150 245
118 2 94 100 150 245
118 2 95 100 150 245
118 2 96 100 150 245
118 2 97 100 150 245
118 2 98 100 150 245
118 2 99 100 150 245
118 2 100 100 150 245
118 2 101 100 150 245
118 2 102 100 150 245
118 2 103 100 150 245
118 2 104 100 150 245
118 2 105 100 150 245
118 2 106 100 150 245
118 2 107 100 150 245
118 2 108 100 150 245
118 2 109 100 150 245
118 2 110 100 150 245
118 2 111 100 150 245
118 2 112 100 150 245
118 2 113 100 150 245
118 2 114 100 150 245
118 2 115 100 150 245
118 2 116 100 150 245
118 2 117 100 150 245
118 2 118 100 150 245
118 2 119 100 150 245
118 2 120 100 150 245
118 2 121 100 150 245
118 2 122 100 150 245
118 2 123 100 150 245
118 2 124 100 150 245
118 2 125 100 150 245
118 2 126 100 150 245
118 2 127 100 150 245
118 3 61 100 150 245
118 3 62 100 150 245
118 3 63 100 150 245
118 3 64 100 150 245
118 3 65 100 150 245
118 3 66 100 150 245
118 3 67 100 150 245
118 3 68 100 150 245
118 3 69 100 150 245
118 3 70 100 150 245
118 3 71 100 150 245
118 3 72 100 150 245
118 3 73 100 150 245
118 3 74 100 150 245
118 3 75 100 150 245
118 3 76 100 150 245
118 3 77 100 150 245
118 3 78 100 150 245
118 3 79 100 150 245
118 3 80 100 150 245
118 3 81 100 150 245
118 3 82 100 150 245
118 3 83 100 150 245
118 3 84 100 150 245
118 3 85 100 150 245
118 3 86 100 150 245
118 3 87 100 150 245
118 3 88 100 150 245
118 3 89 100 150 245
118 3 90 100 150 245
118 3 91 100 150 245
118 3 92 100 150 245
118 3 93 100 150 245
118 3 94 100 150 245
118 3 95 100 150 245
118 3 96 100 150 245
118 3 97 100 150 245
118 3 98 100 150 245
118 3 99 100 150 245
118 3 100 100 150 245
118 3 101 100 150 245
118 3 102 100 150 245
118 3 103 100 150 245
118 3 104 100 150 245
118 3 105 100 150 245
118 3 106 100 150 245
118 3 107 100 150 245
118 3 108 100 150 245
118 3 109 100 150 245
118 3 110 100 150 245
118 3 111 100 150 245
118 3 112 100 150 245
118 3 113 100 150 245
118 3 114 100 150 245
118 3 115 100 150 245
118 3 116 100 150 245
118 3 117 100 150 245
118 3 118 100 150 245
118 3 119 100 150 245
118 3 120 100 150 245
118 3 121 100 150 245
118 3 122 100 150 245
118 3 123 100 150 245
118 3 124 100 150 245
118 3 125 100 150 245
118 3 126 100 150 245
118 3 127 100 150 245
118 4 69 100 150 245
118 4 70 100 150 245
118 4 71 100 150 245
118 4 72 100 150 245
118 4 73 100 150 245
118 4 74 100 150 245
118 4 75 100 150 245
118 4 76 100 150 245
118 4 77 100 150 245
118 4 78 100 150 245
118 4 79 100 150 245
118 4 80 100 150 245
118 4 81 100 150 245
118 4 82 100 150 245
118 4 83 100 150 245
118 4 84 100 150 245
118 4 85 100 150 245
118 4 86 100 150 245
118 4 87 100 150 245
118 4 88 100 150 245
118 4 89 100 150 245
118 4 90 100 150 245
118 4 91 100 150 245
118 4 92 100 150 245
118 4 93 100 150 245
118 4 94 100 150 245
118 4 95 100 150 245
118 4 96 100 150 245
118 4 97 100 150 245
118 4 98 100 150 245
118 4 99 100 150 245
118 4 100 100 150 245
118 4 101 100 150 245
118 4 102 100 150 245
118 4 103 100 150 245
118 4 104 100 150 245
118 4 105 100 150 245
118 4 106 100 150 245
118 4 107 100 150 245
118 4 108 100 150 245
118 4 109 100 150 245
118 4 110 100 150 245
118 4 111 100 150 245
118 4 112 100 150 245
118 4 113 100 150 245
118 4 114 100 150 245
118 4 115 100 150 245
118 4 116 100 150 245
118 4 117 100 150 245
118 4 118 100 150 245
118 4 119 100 150 245
118 4 120 100 150 245
118 4 121 100 150 245
118 4 122 100 150 245
118 4 123 100 150 245
118 4 124 100 150 245
118 4 125 100 150 245
118 4 126 100 150 245
118 5 47 100 150 245
118 5 51 100 150 245
118 5 65 100 150 245
118 5 66 100 150 245
118 5 67 100 150 245
118 5 68 100 150 245
118 5 69 100 150 245
118 5 70 100 150 245
118 5 71 100 150 245
118 5 72 100 150 245
118 5 73 100 150 245
118 5 74 100 150 245
118 5 75 100 150 245
118 5 76 100 150 245
118 5 77 100 150 245
118 5 78 100 150 245
118 5 79 100 150 245
118 5 80 100 150 245
118 5 81 100 150 245
118 5 82 100 150 245
118 5 83 100 150 245
118 5 84 100 150 245
118 5 85 100 150 245
118 5 86 100 150 245
118 5 87 100 150 245
118 5 88 100 150 245
118 5 89 100 150 245
118 5 90 100 150 245
118 5 91 100 150 245
118 5 92 100 150 245
118 5 93 100 150 245
118 5 94 100 150 245
118 5 95 100 150 245
118 5 96 100 150 245
118 5 97 100 150 245
118 5 98 100 150 245
118 5 99 100 150 245
118 5 100 100 150 245
118 5 101 100 150 245
118 5 102 100 150 245
118 5 103 100 150 245
118 5 104 100 150 245
118 5 105 100 150 245
118 5 106 100 150 245
118 5 107 100 150 245
118 5 108 100 150 245
118 5 109 100 150 245
118 5 110 100 150 245
118 5 111 100 150 245
118 5 112 100 150 245
118 5 113 100 150 245
118 5 114 100 150 245
118 5 115 100 150 245
118 5 116 100 150 245
118 5 117 100 150 245
118 5 118 100 150 245
118 5 119 100 150 245
118 5 120 100 150 245
118 5 121 100 150 245
118 5 122 100 150 245
118 5 123 100 150 245
118 5 124 100 150 245
118 5 125 100 150 245
118 5 126 100 150 245
118 6 46 100 150 245
118 6 47 100 150 245
118 6 48 100 150 245
118 6 66 100 150 245
118 6 67 100 150 245
118 6 73 100 150 245
118 6 74 100 150 245
118 6 75 100 150 245
118 6 76 100 150 245
118 6 77 100 150 245
118 6 78 100 150 245
118 6 79 100 150 245
118 6 80 100 150 245
118 6 81 100 150 245
118 6 82 100 150 245
118 6 83 100 150 245
118 6 84 100 150 245
118 6 85 100 150 245
118 6 86 100 150 245
118 6 87 100 150 245
118 6 88 100 150 245
118 6 89 100 150 245
118 6 90 100 150 245
118 6 91 100 150 245
118 6 92 100 150 245
118 6 93 100 150 245
118 6 94 100 150 245
118 6 95 100 150 245
118 6 96 100 150 245
118 6 97 100 150 245
118 6 98 100 150 245
118 6 99 100 150 245
118 6 100 100 150 245
118 6 101 100 150 245
118 6 102 100 150 245
118 6 103 100 150 245
118 6 104 100 150 245
118 6 105 100 150 245
118 6 106 100 150 245
118 6 107 100 150 245
118 6 108 100 150 245
118 6 109 100 150 245
118 6 110 100 150 245
118 6 111 100 150 245
118 6 112 100 150 245
118 6 113 100 150 245
118 6 114 100 150 245
118 6 115 100 150 245
118 6 116 100 150 245
118 6 117 100 150 245
118 6 118 100 150 245
118 6 119 100 150 245
118 6 120 100 150 245
118 6 121 100 150 245
118 6 122 100 150 245
118 6 123 100 150 245
118 6 124 100 150 245
118 6 125 100 150 245
118 6 126 100 150 245
118 6 127 100 150 245
118 7 47 100 150 245
118 7 48 100 150 245
118 7 49 100 150 245
118 7 50 100 150 245
118 7 55 100 150 245
118 7 66 100 150 245
118 7 67 100 150 245
118 7 73 100 150 245
118 7 74 100 150 245
118 7 75 100 150 245
118 7 76 100 150 245
118 7 77 100 150 245
118 7 78 100 150 245
118 7 79 100 150 245
118 7 80 100 150 245
118 7 81 100 150 245
118 7 82 100 150 245
118 7 83 100 150 245
118 7 84 100 150 245
118 7 85 100 150 245
118 7 86 100 150 245
118 7 87 100 150 245
118 7 88 100 150 245
118 7 89 100 150 245
118 7 90 100 150 245
118 7 91 100 150 245
118 7 94 100 150 245
118 7 95 100 150 245
118 7 96 100 150 245
118 7 97 100 150 245
118 7 98 100 150 245
118 7 99 100 150 245
118 7 100 100 150 245
118 7 101 100 150 245
118 7 102 100 150 245
118 7 103 100 150 245
118 7 104 100 150 245
118 7 105 100 150 245
118 7 106 100 150 245
118 7 107 100 150 245
118 7 108 100 150 245
118 7 109 100 150 245
118 7 110 100 150 245
118 7 111 100 150 245
118 7 112 100 150 245
118 7 113 100 150 245
118 7 114 100 150 245
118 7 115 100 150 245
118 7 116 100 150 245
118 7 117 100 150 245
118 7 118 100 150 245
118 7 119 100 150 245
118 7 120 100 150 245
118 7 121 100 150 245
118 7 122 100 150 245
118 7 123 100 150 245
118 7 124 100 150 245
118 7 125 100 150 245
118 7 126 100 150 245
118 7 127 100 150 245
118 8 47 100 150 245
118 8 48 100 150 245
118 8 49 100 150 245
118 8 50 100 150 245
118 8 51 100 150 245
118 8 52 100 150 245
118 8 53 100 150 245
118 8 54 100 150 245
118 8 55 100 150 245
118 8 56 100 150 245
118 8 72 100 150 245
118 8 73 100 150 245
118 8 74 100 150 245
118 8 75 100 150 245
118 8 77 100 150 245
118 8 79 100 150 245
118 8 80 100 150 245
118 8 81 100 150 245
118 8 82 100 150 245
118 8 83 100 150 245
118 8 84 100 150 245
118 8 85 100 150 245
118 8 91 100 150 245
118 8 92 100 150 245
118 8 93 100 150 245
118 8 94 100 150 245
118 8 95 100 150 245
118 8 96 100 150 245
118 8 97 100 150 245
118 8 98 100 150 245
118 8 99 100 150 245
118 8 100 100 150 245
118 8 101 100 150 245
118 8 102 100 150 245
118 8 103 100 150 245
118 8 104 100 150 245
118 8 105 100 150 245
118 8 106 100 150 245
118 8 107 100 150 245
118 8 108 100 150 245
118 8 109 100 150 245
118 8 110 100 150 245
118 8 111 100 150 245
118 8 112 100 150 245
118 8 113 100 150 245
118 8 114 100 150 245
118 8 115 100 150 245
118 8 116 100 150 245
118 8 117 100 150 245
118 8 118 100 150 245
118 8 119 100 150 245
118 8 120 100 150 245
118 8 121 100 150 245
118 8 122 100 150 245
118 8 123 100 150 245
118 8 124 100 150 245
118 8 125 100 150 245
118 8 126 100 150 245
118 8 127 100 150 245
118 9 47 100 150 245
118 9 48 100 150 245
118 9 49 100 150 245
118 9 50 100 150 245
118 9 51 100 150 245
118 9 56 100 150 245
118 9 57 100 150 245
118 9 58 100 150 245
118 9 59 100 150 245
118 9 60 100 150 245
118 9 61 100 150 245
118 9 62 100 150 245
