ply
format ascii 1.0
element vertex 2666
property float x
property float y
property float z
property uchar red
property uchar green
property uchar blue
end_header
35 12 111 255 200 0
35 12 112 255 200 0
36 0 0 255 150 255
36 0 1 255 150 255
36 0 2 255 150 255
36 0 3 255 150 255
36 0 4 255 150 255
36 0 5 255 150 255
36 0 6 255 0 255
36 0 7 255 0 255
36 0 8 255 0 255
36 0 9 255 0 255
36 0 10 255 0 255
36 0 11 255 0 255
36 0 12 255 0 255
36 0 13 255 0 255
36 0 14 255 0 255
36 0 15 255 0 255
36 0 16 255 0 255
36 0 17 255 0 255
36 0 18 255 0 255
36 0 19 255 0 255
36 0 20 255 0 255
36 0 21 255 0 255
36 0 22 255 0 255
36 0 23 255 0 255
36 0 24 255 0 255
36 0 25 255 0 255
36 0 26 255 0 255
36 0 27 255 0 255
36 0 28 255 0 255
36 0 29 255 0 255
36 0 30 255 0 255
36 0 31 255 0 255
36 0 32 255 0 255
36 0 33 255 0 255
36 0 34 255 0 255
36 0 35 255 0 255
36 0 36 255 0 255
36 0 37 255 0 255
36 0 38 0 175 0
36 0 39 0 175 0
36 0 40 0 175 0
36 0 41 0 175 0
36 0 42 0 175 0
36 0 43 255 150 255
36 0 44 100 150 245
36 0 45 255 150 255
36 0 46 255 150 255
36 0 47 255 150 255
36 0 48 255 150 255
36 0 49 255 150 255
36 0 50 255 150 255
36 0 51 255 150 255
36 0 52 100 150 245
36 0 53 255 150 255
36 0 54 255 150 255
36 0 55 255 150 255
36 0 56 100 150 245
36 0 57 255 150 255
36 0 58 255 150 255
36 0 59 255 150 255
36 0 78 75 0 75
36 0 79 75 0 75
36 0 80 75 0 75
36 0 81 75 0 75
36 0 82 75 0 75
36 0 83 75 0 75
36 0 84 255 0 255
36 0 85 255 0 255
36 0 86 255 0 255
36 0 87 255 0 255
36 0 88 255 0 255
36 0 89 255 0 255
36 0 90 255 0 255
36 0 91 255 0 255
36 0 92 255 0 255
36 0 93 255 0 255
36 0 94 255 0 255
36 0 95 255 0 255
36 0 96 255 0 255
36 0 97 255 0 255
36 0 98 75 0 75
36 0 99 75 0 75
36 1 5 100 150 245
36 1 37 0 175 0
36 1 38 0 175 0
36 1 39 0 175 0
36 1 40 0 175 0
36 1 41 0 175 0
36 1 42 0 175 0
36 1 43 0 175 0
36 1 44 100 150 245
36 1 45 100 150 245
36 1 47 100 150 245
36 1 48 100 150 245
36 1 49 100 150 245
36 1 51 100 150 245
36 1 52 100 150 245
36 1 55 100 150 245
36 1 56 100 150 245
36 1 58 100 150 245
36 1 59 75 0 75
36 1 63 75 0 75
36 1 64 75 0 75
36 1 65 75 0 75
36 1 66 75 0 75
36 1 67 75 0 75
36 1 68 75 0 75
36 1 69 75 0 75
36 1 70 0 175 0
36 1 71 0 175 0
36 1 72 0 175 0
36 1 73 0 175 0
36 1 77 75 0 75
36 1 78 0 175 0
36 1 79 75 0 75
36 1 80 75 0 75
36 1 94 100 150 245
36 1 95 100 150 245
36 1 96 100 150 245
36 1 103 75 0 75
36 1 104 75 0 75
36 1 105 0 175 0
36 2 37 0 175 0
36 2 38 0 175 0
36 2 39 0 175 0
36 2 40 0 175 0
36 2 41 0 175 0
36 2 42 0 175 0
36 2 43 0 175 0
36 2 44 100 150 245
36 2 45 100 150 245
36 2 46 100 150 245
36 2 47 100 150 245
36 2 48 100 150 245
36 2 49 100 150 245
36 2 50 100 150 245
36 2 51 100 150 245
36 2 52 100 150 245
36 2 56 100 150 245
36 2 57 100 150 245
36 2 58 100 150 245
36 2 59 100 150 245
36 2 69 255 200 0
36 2 70 0 175 0
36 2 71 0 175 0
36 2 72 0 175 0
36 2 78 0 175 0
36 2 94 100 150 245
36 2 95 100 150 245
36 2 96 100 150 245
36 2 104 0 175 0
36 2 105 0 175 0
36 3 39 0 175 0
36 3 40 0 175 0
36 3 41 0 175 0
36 3 44 100 150 245
36 3 45 100 150 245
36 3 46 100 150 245
36 3 47 100 150 245
36 3 48 100 150 245
36 3 50 100 150 245
36 3 51 100 150 245
36 3 52 100 150 245
36 3 55 100 150 245
36 3 56 100 150 245
36 3 57 100 150 245
36 3 58 100 150 245
36 3 59 100 150 245
36 3 60 100 150 245
36 3 69 0 175 0
36 3 70 0 175 0
36 3 71 0 175 0
36 3 72 0 175 0
36 3 73 0 175 0
36 3 74 0 175 0
36 3 76 0 175 0
36 3 77 0 175 0
36 3 78 0 175 0
36 3 94 100 150 245
36 3 95 100 150 245
36 3 96 100 150 245
36 3 98 100 150 245
36 3 99 100 150 245
36 3 100 100 150 245
36 3 104 0 175 0
36 3 111 255 200 0
36 3 112 255 200 0
36 3 113 255 200 0
36 4 44 100 150 245
36 4 45 100 150 245
36 4 46 100 150 245
36 4 47 100 150 245
36 4 48 100 150 245
36 4 51 100 150 245
36 4 52 100 150 245
36 4 55 100 150 245
36 4 56 100 150 245
36 4 69 0 175 0
36 4 70 0 175 0
36 4 71 0 175 0
36 4 72 0 175 0
36 4 73 0 175 0
36 4 74 0 175 0
36 4 75 0 175 0
36 4 76 0 175 0
36 4 77 0 175 0
36 4 95 100 150 245
36 4 96 100 150 245
36 4 98 100 150 245
36 4 99 100 150 245
36 4 111 255 200 0
36 4 112 255 200 0
36 4 113 255 200 0
36 5 51 100 150 245
36 5 52 100 150 245
36 5 53 100 150 245
36 5 54 100 150 245
36 5 55 100 150 245
36 5 56 100 150 245
36 5 72 0 175 0
36 5 73 0 175 0
36 5 74 0 175 0
36 5 75 0 175 0
36 5 76 0 175 0
36 5 77 0 175 0
36 5 95 100 150 245
36 5 96 100 150 245
36 5 97 100 150 245
36 5 111 255 200 0
36 5 112 255 200 0
36 5 113 255 200 0
36 6 73 0 175 0
36 6 74 0 175 0
36 6 75 0 175 0
36 6 76 0 175 0
36 6 77 0 175 0
36 6 78 0 175 0
36 6 111 255 200 0
36 6 112 255 200 0
36 6 113 255 200 0
36 7 75 0 175 0
36 7 111 255 200 0
36 7 112 255 200 0
36 7 113 255 200 0
36 8 111 255 200 0
36 8 112 255 200 0
36 8 113 255 200 0
36 9 111 255 200 0
36 9 112 255 200 0
36 9 113 255 200 0
36 10 112 255 200 0
36 10 113 255 200 0
36 11 112 255 200 0
36 11 113 255 200 0
36 12 112 255 200 0
36 12 113 255 200 0
37 0 0 255 150 255
37 0 1 255 150 255
37 0 2 255 150 255
37 0 3 255 150 255
37 0 4 255 150 255
37 0 5 255 0 255
37 0 6 255 0 255
37 0 7 255 0 255
37 0 8 255 0 255
37 0 9 255 0 255
37 0 10 255 0 255
37 0 11 255 0 255
37 0 12 255 0 255
37 0 13 255 0 255
37 0 14 255 0 255
37 0 15 255 0 255
37 0 16 255 0 255
37 0 17 255 0 255
37 0 18 255 0 255
37 0 19 255 0 255
37 0 20 255 0 255
37 0 21 255 0 255
37 0 22 255 0 255
37 0 23 255 0 255
37 0 24 255 0 255
37 0 25 255 0 255
37 0 26 255 0 255
37 0 27 255 0 255
37 0 28 255 0 255
37 0 29 255 0 255
37 0 30 255 0 255
37 0 31 255 0 255
37 0 32 255 0 255
37 0 33 255 0 255
37 0 34 255 0 255
37 0 35 255 0 255
37 0 36 255 0 255
37 0 37 255 150 255
37 0 38 0 175 0
37 0 39 0 175 0
37 0 40 0 175 0
37 0 41 0 175 0
37 0 42 0 175 0
37 0 43 0 175 0
37 0 44 255 150 255
37 0 45 255 150 255
37 0 46 255 150 255
37 0 47 255 150 255
37 0 48 255 150 255
37 0 49 255 150 255
37 0 50 255 150 255
37 0 51 255 150 255
37 0 52 255 150 255
37 0 53 255 150 255
37 0 55 255 150 255
37 0 56 255 150 255
37 0 57 255 150 255
37 0 58 75 0 75
37 0 79 75 0 75
37 0 80 75 0 75
37 0 81 75 0 75
37 0 82 75 0 75
37 0 83 75 0 75
37 0 84 75 0 75
37 0 85 255 0 255
37 0 86 255 0 255
37 0 87 255 0 255
37 0 88 255 0 255
37 0 89 255 0 255
37 0 90 255 0 255
37 0 91 255 0 255
37 0 92 255 0 255
37 0 93 255 0 255
37 0 94 255 0 255
37 0 95 255 0 255
37 0 96 255 0 255
37 0 97 255 0 255
37 0 98 255 0 255
37 0 99 75 0 75
37 0 101 75 0 75
37 1 37 0 175 0
37 1 38 0 175 0
37 1 39 0 175 0
37 1 40 0 175 0
37 1 41 0 175 0
37 1 42 0 175 0
37 1 43 0 175 0
37 1 44 100 150 245
37 1 45 100 150 245
37 1 48 100 150 245
37 1 49 100 150 245
37 1 52 100 150 245
37 1 56 100 150 245
37 1 57 75 0 75
37 1 58 75 0 75
37 1 59 75 0 75
37 1 60 75 0 75
37 1 63 75 0 75
37 1 64 75 0 75
37 1 65 75 0 75
37 1 66 75 0 75
37 1 67 75 0 75
37 1 68 75 0 75
37 1 69 255 200 0
37 1 70 255 200 0
37 1 71 0 175 0
37 1 72 0 175 0
37 1 73 0 175 0
37 1 74 0 175 0
37 1 78 75 0 75
37 1 79 75 0 75
37 1 95 100 150 245
37 1 96 100 150 245
37 1 97 100 150 245
37 1 104 0 175 0
37 1 105 0 175 0
37 1 106 0 175 0
37 2 37 0 175 0
37 2 38 0 175 0
37 2 39 0 175 0
37 2 40 0 175 0
37 2 41 0 175 0
37 2 42 0 175 0
37 2 43 0 175 0
37 2 44 100 150 245
37 2 45 100 150 245
37 2 46 100 150 245
37 2 47 100 150 245
37 2 48 100 150 245
37 2 49 100 150 245
37 2 51 100 150 245
37 2 52 100 150 245
37 2 56 100 150 245
37 2 57 100 150 245
37 2 67 255 200 0
37 2 68 255 200 0
37 2 69 255 200 0
37 2 70 0 175 0
37 2 71 0 175 0
37 2 73 0 175 0
37 2 78 0 175 0
37 2 79 0 175 0
37 2 95 100 150 245
37 2 96 100 150 245
37 2 104 0 175 0
37 2 105 0 175 0
37 2 113 255 200 0
37 3 40 0 175 0
37 3 41 0 175 0
37 3 42 0 175 0
37 3 44 100 150 245
37 3 45 100 150 245
37 3 46 100 150 245
37 3 48 100 150 245
37 3 49 100 150 245
37 3 51 100 150 245
37 3 52 100 150 245
37 3 53 100 150 245
37 3 56 100 150 245
37 3 57 100 150 245
37 3 67 255 200 0
37 3 68 255 200 0
37 3 69 255 200 0
37 3 70 0 175 0
37 3 71 0 175 0
37 3 72 0 175 0
37 3 73 0 175 0
37 3 74 0 175 0
37 3 76 0 175 0
37 3 77 0 175 0
37 3 78 0 175 0
37 3 79 0 175 0
37 3 95 100 150 245
37 3 96 100 150 245
37 3 97 100 150 245
37 3 99 100 150 245
37 3 100 100 150 245
37 3 104 0 175 0
37 3 112 255 200 0
37 3 113 255 200 0
37 3 114 255 200 0
37 4 45 100 150 245
37 4 46 100 150 245
37 4 47 100 150 245
37 4 48 100 150 245
37 4 52 100 150 245
37 4 53 100 150 245
37 4 56 100 150 245
37 4 57 100 150 245
37 4 68 255 200 0
37 4 69 255 200 0
37 4 70 0 175 0
37 4 71 0 175 0
37 4 72 0 175 0
37 4 73 0 175 0
37 4 74 0 175 0
37 4 75 0 175 0
37 4 76 0 175 0
37 4 77 0 175 0
37 4 78 0 175 0
37 4 96 100 150 245
37 4 97 100 150 245
37 4 100 100 150 245
37 4 112 255 200 0
37 4 113 255 200 0
37 4 114 255 200 0
37 5 52 100 150 245
37 5 53 100 150 245
37 5 54 100 150 245
37 5 55 100 150 245
37 5 56 100 150 245
37 5 67 255 200 0
37 5 68 255 200 0
37 5 69 255 200 0
37 5 70 255 200 0
37 5 72 0 175 0
37 5 73 0 175 0
37 5 74 0 175 0
37 5 75 0 175 0
37 5 76 0 175 0
37 5 77 0 175 0
37 5 78 0 175 0
37 5 96 100 150 245
37 5 97 100 150 245
37 5 98 100 150 245
37 5 112 255 200 0
37 5 113 255 200 0
37 5 114 255 200 0
37 6 67 255 200 0
37 6 68 255 200 0
37 6 69 255 200 0
37 6 70 255 200 0
37 6 72 0 175 0
37 6 73 0 175 0
37 6 74 0 175 0
37 6 75 0 175 0
37 6 76 0 175 0
37 6 77 0 175 0
37 6 78 0 175 0
37 6 112 255 200 0
37 6 113 255 200 0
37 6 114 255 200 0
37 7 68 255 200 0
37 7 69 255 200 0
37 7 70 255 200 0
37 7 74 0 175 0
37 7 75 0 175 0
37 7 112 255 200 0
37 7 113 255 200 0
37 7 114 255 200 0
37 8 68 255 200 0
37 8 69 255 200 0
37 8 70 255 200 0
37 8 113 255 200 0
37 8 114 255 200 0
37 9 69 255 200 0
37 9 70 255 200 0
37 9 113 255 200 0
37 9 114 255 200 0
37 10 68 255 200 0
37 10 69 255 200 0
37 10 113 255 200 0
37 10 114 255 200 0
37 11 69 255 200 0
37 11 113 255 200 0
37 11 114 255 200 0
37 12 113 255 200 0
37 12 114 255 200 0
38 0 0 255 150 255
38 0 1 255 150 255
38 0 2 255 150 255
38 0 3 255 0 255
38 0 4 255 0 255
38 0 5 255 0 255
38 0 6 255 0 255
38 0 7 255 0 255
38 0 8 255 0 255
38 0 9 255 0 255
38 0 10 255 0 255
38 0 11 255 0 255
38 0 12 255 0 255
38 0 13 255 0 255
38 0 14 255 0 255
38 0 15 255 0 255
38 0 16 255 0 255
38 0 17 255 0 255
38 0 18 255 0 255
38 0 19 255 0 255
38 0 20 255 0 255
38 0 21 255 0 255
38 0 22 255 0 255
38 0 23 255 0 255
38 0 24 255 0 255
38 0 25 255 0 255
38 0 26 255 0 255
38 0 27 255 0 255
38 0 28 255 0 255
38 0 29 255 0 255
38 0 30 255 0 255
38 0 31 255 0 255
38 0 32 255 0 255
38 0 33 255 0 255
38 0 34 255 0 255
38 0 35 255 150 255
38 0 36 255 150 255
38 0 37 255 150 255
38 0 38 0 175 0
38 0 39 0 175 0
38 0 42 0 175 0
38 0 43 0 175 0
38 0 44 0 175 0
38 0 45 255 150 255
38 0 46 255 150 255
38 0 47 255 150 255
38 0 48 255 150 255
38 0 49 255 150 255
38 0 50 255 150 255
38 0 51 255 150 255
38 0 52 255 150 255
38 0 53 100 150 245
38 0 54 255 150 255
38 0 56 255 150 255
38 0 57 75 0 75
38 0 68 75 0 75
38 0 79 75 0 75
38 0 80 75 0 75
38 0 81 75 0 75
38 0 82 75 0 75
38 0 83 75 0 75
38 0 84 75 0 75
38 0 85 255 0 255
38 0 86 255 0 255
38 0 87 255 0 255
38 0 88 255 0 255
38 0 89 255 0 255
38 0 90 255 0 255
38 0 91 255 0 255
38 0 92 255 0 255
38 0 93 255 0 255
38 0 94 255 0 255
38 0 95 255 0 255
38 0 96 255 0 255
38 0 97 100 150 245
38 0 98 255 0 255
38 0 99 255 0 255
38 0 101 75 0 75
38 0 102 75 0 75
38 1 37 0 175 0
38 1 38 0 175 0
38 1 39 0 175 0
38 1 40 0 175 0
38 1 41 0 175 0
38 1 42 0 175 0
38 1 43 0 175 0
38 1 44 0 175 0
38 1 45 100 150 245
38 1 49 100 150 245
38 1 50 100 150 245
38 1 52 100 150 245
38 1 53 100 150 245
38 1 57 75 0 75
38 1 58 75 0 75
38 1 59 75 0 75
38 1 60 75 0 75
38 1 63 75 0 75
38 1 64 75 0 75
38 1 65 75 0 75
38 1 66 75 0 75
38 1 67 255 200 0
38 1 68 255 200 0
38 1 69 255 200 0
38 1 70 255 200 0
38 1 71 0 175 0
38 1 72 0 175 0
38 1 75 0 175 0
38 1 78 75 0 75
38 1 79 75 0 75
38 1 80 75 0 75
38 1 96 100 150 245
38 1 97 100 150 245
38 1 107 0 175 0
38 1 108 0 175 0
38 2 38 0 175 0
38 2 39 0 175 0
38 2 40 0 175 0
38 2 41 0 175 0
38 2 42 0 175 0
38 2 43 0 175 0
38 2 44 100 150 245
38 2 45 100 150 245
38 2 46 100 150 245
38 2 47 100 150 245
38 2 48 100 150 245
38 2 49 100 150 245
38 2 50 100 150 245
38 2 52 100 150 245
38 2 53 100 150 245
38 2 66 255 200 0
38 2 67 255 200 0
38 2 68 255 200 0
38 2 69 255 200 0
38 2 70 255 200 0
38 2 71 0 175 0
38 2 72 0 175 0
38 2 79 0 175 0
38 2 80 0 175 0
38 2 96 100 150 245
38 2 97 100 150 245
38 2 104 0 175 0
38 2 113 255 200 0
38 3 39 0 175 0
38 3 40 0 175 0
38 3 41 0 175 0
38 3 42 0 175 0
38 3 44 100 150 245
38 3 45 100 150 245
38 3 46 100 150 245
38 3 47 100 150 245
38 3 48 100 150 245
38 3 49 100 150 245
38 3 50 100 150 245
38 3 52 100 150 245
38 3 53 100 150 245
38 3 54 100 150 245
38 3 55 100 150 245
38 3 56 100 150 245
38 3 66 255 200 0
38 3 67 255 200 0
38 3 68 255 200 0
38 3 69 255 200 0
38 3 70 255 200 0
38 3 71 0 175 0
38 3 72 0 175 0
38 3 73 0 175 0
38 3 74 0 175 0
38 3 75 0 175 0
38 3 76 0 175 0
38 3 77 0 175 0
38 3 78 0 175 0
38 3 79 0 175 0
38 3 96 100 150 245
38 3 97 100 150 245
38 3 99 100 150 245
38 3 100 100 150 245
38 3 104 0 175 0
38 3 105 0 175 0
38 3 113 255 200 0
38 3 114 255 200 0
38 4 45 100 150 245
38 4 46 100 150 245
38 4 47 100 150 245
38 4 52 100 150 245
38 4 53 100 150 245
38 4 54 100 150 245
38 4 67 255 200 0
38 4 68 255 200 0
38 4 69 255 200 0
38 4 70 255 200 0
38 4 71 0 175 0
38 4 72 0 175 0
38 4 73 0 175 0
38 4 74 0 175 0
38 4 75 0 175 0
38 4 76 0 175 0
38 4 77 0 175 0
38 4 78 0 175 0
38 4 96 100 150 245
38 4 97 100 150 245
38 4 98 100 150 245
38 4 99 100 150 245
38 4 100 100 150 245
38 4 113 255 200 0
38 4 114 255 200 0
38 5 53 100 150 245
38 5 54 100 150 245
38 5 66 255 200 0
38 5 67 255 200 0
38 5 68 255 200 0
38 5 69 255 200 0
38 5 70 255 200 0
38 5 71 0 175 0
38 5 72 0 175 0
38 5 73 0 175 0
38 5 74 0 175 0
38 5 75 0 175 0
38 5 76 0 175 0
38 5 77 0 175 0
38 5 78 0 175 0
38 5 96 100 150 245
38 5 97 100 150 245
38 5 98 100 150 245
38 5 113 255 200 0
38 5 114 255 200 0
38 6 66 255 200 0
38 6 67 255 200 0
38 6 68 255 200 0
38 6 69 255 200 0
38 6 70 255 200 0
38 6 72 0 175 0
38 6 73 0 175 0
38 6 74 0 175 0
38 6 75 0 175 0
38 6 76 0 175 0
38 6 77 0 175 0
38 6 113 255 200 0
38 6 114 255 200 0
38 6 115 255 200 0
38 7 67 255 200 0
38 7 68 255 200 0
38 7 69 255 200 0
38 7 70 255 200 0
38 7 72 0 175 0
38 7 73 0 175 0
38 7 74 0 175 0
38 7 75 0 175 0
38 7 77 0 175 0
38 7 113 255 200 0
38 7 114 255 200 0
38 7 115 255 200 0
38 8 67 255 200 0
38 8 68 255 200 0
38 8 69 255 200 0
38 8 113 255 200 0
38 8 114 255 200 0
38 8 115 255 200 0
38 9 67 255 200 0
38 9 68 255 200 0
38 9 69 255 200 0
38 9 113 255 200 0
38 9 114 255 200 0
38 9 115 255 200 0
38 10 67 255 200 0
38 10 68 255 200 0
38 10 69 255 200 0
38 10 113 255 200 0
38 10 114 255 200 0
38 11 67 255 200 0
38 11 68 255 200 0
38 11 114 255 200 0
38 12 114 255 200 0
39 0 0 255 150 255
39 0 1 255 0 255
39 0 2 255 0 255
39 0 3 255 0 255
39 0 4 255 0 255
39 0 5 255 0 255
39 0 6 255 0 255
39 0 7 255 0 255
39 0 8 255 0 255
39 0 9 255 0 255
39 0 10 255 0 255
39 0 11 255 0 255
39 0 12 255 0 255
39 0 13 255 0 255
39 0 14 255 0 255
39 0 15 255 0 255
39 0 16 255 0 255
39 0 17 255 0 255
39 0 18 255 0 255
39 0 19 255 0 255
39 0 20 255 0 255
39 0 21 255 0 255
39 0 22 255 0 255
39 0 23 255 0 255
39 0 24 255 0 255
39 0 25 255 0 255
39 0 26 255 0 255
39 0 27 255 0 255
39 0 28 255 0 255
39 0 29 255 0 255
39 0 30 255 0 255
39 0 31 255 0 255
39 0 32 255 0 255
39 0 33 255 0 255
39 0 34 255 150 255
39 0 35 255 150 255
39 0 36 255 150 255
39 0 37 255 150 255
39 0 38 255 150 255
39 0 39 0 175 0
39 0 40 0 175 0
39 0 43 0 175 0
39 0 44 0 175 0
39 0 45 255 150 255
39 0 46 255 150 255
39 0 47 255 150 255
39 0 48 255 150 255
39 0 49 255 150 255
39 0 50 100 150 245
39 0 51 255 150 255
39 0 52 255 150 255
39 0 53 255 150 255
39 0 54 255 150 255
39 0 69 255 200 0
39 0 70 255 200 0
39 0 71 255 200 0
39 0 80 75 0 75
39 0 81 75 0 75
39 0 82 75 0 75
39 0 83 75 0 75
39 0 84 75 0 75
39 0 85 75 0 75
39 0 86 255 0 255
39 0 87 255 0 255
39 0 88 255 0 255
39 0 89 255 0 255
39 0 90 255 0 255
39 0 91 255 0 255
39 0 92 255 0 255
39 0 93 255 0 255
39 0 94 255 0 255
39 0 95 255 0 255
39 0 96 255 0 255
39 0 97 100 150 245
39 0 98 255 0 255
39 0 99 255 0 255
39 0 100 75 0 75
39 0 101 75 0 75
39 0 102 75 0 75
39 1 37 0 175 0
39 1 38 0 175 0
39 1 39 0 175 0
39 1 40 0 175 0
39 1 41 0 175 0
39 1 42 0 175 0
39 1 43 0 175 0
39 1 44 0 175 0
39 1 45 100 150 245
39 1 46 100 150 245
39 1 50 100 150 245
39 1 53 100 150 245
39 1 54 255 150 255
39 1 57 75 0 75
39 1 58 75 0 75
39 1 59 75 0 75
39 1 60 75 0 75
39 1 61 75 0 75
39 1 62 75 0 75
39 1 63 75 0 75
39 1 64 75 0 75
39 1 65 75 0 75
39 1 66 255 200 0
39 1 67 255 200 0
39 1 68 255 200 0
39 1 70 255 200 0
39 1 71 255 200 0
39 1 72 0 175 0
39 1 73 0 175 0
39 1 79 0 175 0
39 1 80 75 0 75
39 1 90 255 0 255
39 1 96 100 150 245
39 1 97 100 150 245
39 1 98 100 150 245
39 1 108 0 175 0
39 1 109 0 175 0
39 1 110 0 175 0
39 2 37 0 175 0
39 2 38 0 175 0
39 2 39 0 175 0
39 2 40 0 175 0
39 2 41 0 175 0
39 2 42 0 175 0
39 2 43 0 175 0
39 2 44 0 175 0
39 2 45 100 150 245
39 2 46 100 150 245
39 2 47 100 150 245
39 2 48 100 150 245
39 2 49 100 150 245
39 2 50 100 150 245
39 2 53 100 150 245
39 2 64 255 200 0
39 2 65 255 200 0
39 2 66 255 200 0
39 2 67 255 200 0
39 2 68 255 200 0
39 2 70 255 200 0
39 2 71 255 200 0
39 2 72 0 175 0
39 2 79 0 175 0
39 2 80 0 175 0
39 2 96 100 150 245
39 2 97 100 150 245
39 2 98 100 150 245
39 2 112 0 175 0
39 2 113 255 200 0
39 2 114 255 200 0
39 3 38 0 175 0
39 3 39 0 175 0
39 3 40 0 175 0
39 3 41 0 175 0
39 3 42 0 175 0
39 3 43 0 175 0
39 3 45 100 150 245
39 3 46 100 150 245
39 3 47 100 150 245
39 3 48 100 150 245
39 3 49 100 150 245
39 3 50 100 150 245
39 3 53 100 150 245
39 3 54 100 150 245
39 3 65 255 200 0
39 3 66 255 200 0
39 3 67 255 200 0
39 3 68 255 200 0
39 3 70 255 200 0
39 3 71 255 200 0
39 3 72 0 175 0
39 3 73 0 175 0
39 3 78 0 175 0
39 3 79 0 175 0
39 3 80 0 175 0
39 3 96 100 150 245
39 3 97 100 150 245
39 3 98 100 150 245
39 3 113 255 200 0
39 3 114 255 200 0
39 4 46 100 150 245
39 4 53 100 150 245
39 4 54 100 150 245
39 4 65 255 200 0
39 4 66 255 200 0
39 4 67 255 200 0
39 4 68 255 200 0
39 4 70 255 200 0
39 4 71 255 200 0
39 4 72 0 175 0
39 4 73 0 175 0
39 4 74 0 175 0
39 4 76 0 175 0
39 4 77 0 175 0
39 4 97 100 150 245
39 4 98 100 150 245
39 4 114 255 200 0
39 4 115 255 200 0
39 5 53 100 150 245
39 5 54 100 150 245
39 5 65 255 200 0
39 5 66 255 200 0
39 5 67 255 200 0
39 5 68 255 200 0
39 5 70 255 200 0
39 5 71 255 200 0
39 5 72 0 175 0
39 5 73 0 175 0
39 5 74 0 175 0
39 5 76 0 175 0
39 5 77 0 175 0
39 5 113 255 200 0
39 5 114 255 200 0
39 5 115 255 200 0
39 6 65 255 200 0
39 6 66 255 200 0
39 6 67 255 200 0
39 6 68 255 200 0
39 6 70 255 200 0
39 6 71 255 200 0
39 6 73 0 175 0
39 6 74 0 175 0
39 6 75 0 175 0
39 6 76 0 175 0
39 6 77 0 175 0
39 6 114 255 200 0
39 6 115 255 200 0
39 7 65 255 200 0
39 7 66 255 200 0
39 7 67 255 200 0
39 7 70 255 200 0
39 7 71 255 200 0
39 7 73 0 175 0
39 7 74 0 175 0
39 7 77 0 175 0
39 7 114 255 200 0
39 7 115 255 200 0
39 8 65 255 200 0
39 8 66 255 200 0
39 8 67 255 200 0
39 8 114 255 200 0
39 8 115 255 200 0
39 9 65 255 200 0
39 9 66 255 200 0
39 9 67 255 200 0
39 9 114 255 200 0
39 9 115 255 200 0
39 10 44 135 60 0
39 10 65 255 200 0
39 10 66 255 200 0
39 10 67 255 200 0
39 10 114 255 200 0
39 10 115 255 200 0
39 11 65 255 200 0
39 11 66 255 200 0
39 11 67 255 200 0
39 11 114 255 200 0
39 11 115 255 200 0
39 12 114 255 200 0
39 12 115 255 200 0
40 0 0 255 0 255
40 0 1 255 0 255
40 0 2 255 0 255
40 0 3 255 0 255
40 0 4 255 0 255
40 0 5 255 0 255
40 0 6 255 0 255
40 0 7 255 0 255
40 0 8 255 0 255
40 0 9 255 0 255
40 0 10 255 0 255
40 0 11 255 0 255
40 0 12 255 0 255
40 0 13 255 0 255
40 0 14 255 0 255
40 0 15 255 0 255
40 0 16 255 0 255
40 0 17 255 0 255
40 0 18 255 0 255
40 0 19 255 0 255
40 0 20 255 0 255
40 0 21 255 0 255
40 0 22 255 0 255
40 0 23 255 0 255
40 0 24 255 0 255
40 0 25 255 0 255
40 0 26 255 0 255
40 0 27 255 0 255
40 0 28 255 0 255
40 0 29 255 0 255
40 0 30 255 0 255
40 0 31 255 0 255
40 0 32 255 150 255
40 0 33 255 150 255
40 0 34 255 150 255
40 0 35 255 150 255
40 0 36 255 150 255
40 0 37 255 150 255
40 0 38 255 150 255
40 0 39 255 150 255
40 0 40 0 175 0
40 0 44 0 175 0
40 0 45 0 175 0
40 0 46 255 150 255
40 0 47 255 150 255
40 0 48 255 150 255
40 0 49 255 150 255
40 0 50 255 150 255
40 0 51 255 150 255
40 0 52 255 150 255
40 0 53 255 150 255
40 0 67 255 200 0
40 0 68 255 200 0
40 0 69 255 200 0
40 0 70 255 200 0
40 0 80 75 0 75
40 0 81 75 0 75
40 0 82 75 0 75
40 0 83 75 0 75
40 0 84 75 0 75
40 0 85 75 0 75
40 0 86 255 0 255
40 0 87 255 0 255
40 0 88 255 0 255
40 0 89 255 0 255
40 0 90 255 0 255
40 0 91 255 0 255
40 0 92 255 0 255
40 0 93 255 0 255
40 0 94 255 0 255
40 0 95 255 0 255
40 0 96 255 0 255
40 0 97 255 0 255
40 0 98 255 0 255
40 0 99 255 0 255
40 0 100 255 0 255
40 0 101 75 0 75
40 1 34 100 150 245
40 1 35 100 150 245
40 1 36 100 150 245
40 1 37 100 150 245
40 1 38 0 175 0
40 1 39 0 175 0
40 1 40 0 175 0
40 1 41 0 175 0
40 1 42 0 175 0
40 1 43 0 175 0
40 1 44 0 175 0
40 1 45 0 175 0
40 1 46 100 150 245
40 1 47 100 150 245
40 1 50 100 150 245
40 1 51 100 150 245
40 1 52 255 150 255
40 1 53 75 0 75
40 1 54 75 0 75
40 1 55 75 0 75
40 1 57 75 0 75
40 1 58 75 0 75
40 1 59 75 0 75
40 1 60 75 0 75
40 1 61 75 0 75
40 1 62 75 0 75
40 1 63 75 0 75
40 1 64 255 200 0
40 1 65 255 200 0
40 1 66 255 200 0
40 1 67 255 200 0
40 1 71 255 200 0
40 1 72 0 175 0
40 1 73 0 175 0
40 1 79 0 175 0
40 1 80 0 175 0
40 1 81 75 0 75
40 1 97 100 150 245
40 1 98 100 150 245
40 1 108 0 175 0
40 1 109 0 175 0
40 1 110 0 175 0
40 1 111 0 175 0
40 2 34 100 150 245
40 2 35 100 150 245
40 2 36 100 150 245
40 2 37 100 150 245
40 2 38 0 175 0
40 2 39 0 175 0
40 2 40 0 175 0
40 2 41 0 175 0
40 2 42 0 175 0
40 2 43 0 175 0
40 2 44 0 175 0
40 2 45 100 150 245
40 2 46 100 150 245
40 2 47 100 150 245
40 2 48 100 150 245
40 2 50 100 150 245
40 2 51 100 150 245
40 2 63 255 200 0
40 2 64 255 200 0
40 2 65 255 200 0
40 2 66 255 200 0
40 2 67 255 200 0
40 2 69 255 200 0
40 2 70 255 200 0
40 2 71 255 200 0
40 2 72 0 175 0
40 2 73 0 175 0
40 2 80 0 175 0
40 2 81 0 175 0
40 2 97 100 150 245
40 2 98 100 150 245
40 2 111 0 175 0
40 2 112 0 175 0
40 2 114 0 175 0
40 2 115 255 200 0
40 3 40 0 175 0
40 3 41 0 175 0
40 3 42 0 175 0
40 3 43 0 175 0
40 3 46 100 150 245
40 3 47 100 150 245
40 3 48 100 150 245
40 3 49 100 150 245
40 3 50 100 150 245
40 3 52 100 150 245
40 3 63 255 200 0
40 3 64 255 200 0
40 3 65 255 200 0
40 3 66 255 200 0
40 3 67 255 200 0
40 3 71 255 200 0
40 3 72 0 175 0
40 3 73 0 175 0
40 3 74 0 175 0
40 3 75 0 175 0
40 3 79 0 175 0
40 3 80 0 175 0
40 3 81 0 175 0
40 3 97 100 150 245
40 3 98 100 150 245
40 3 110 0 175 0
40 3 111 0 175 0
40 3 112 0 175 0
40 3 113 0 175 0
40 3 114 255 200 0
40 3 115 255 200 0
40 4 63 255 200 0
40 4 64 255 200 0
40 4 65 255 200 0
40 4 66 255 200 0
40 4 70 255 200 0
40 4 71 255 200 0
40 4 72 0 175 0
40 4 73 0 175 0
40 4 74 0 175 0
40 4 75 0 175 0
40 4 97 100 150 245
40 4 110 0 175 0
40 4 114 255 200 0
40 4 115 255 200 0
40 4 116 255 200 0
40 5 63 255 200 0
40 5 64 255 200 0
40 5 65 255 200 0
40 5 66 255 200 0
40 5 70 255 200 0
40 5 71 255 200 0
40 5 114 255 200 0
40 5 115 255 200 0
40 6 63 255 200 0
40 6 64 255 200 0
40 6 65 255 200 0
40 6 66 255 200 0
40 6 70 255 200 0
40 6 71 255 200 0
40 6 74 0 175 0
40 6 77 0 175 0
40 6 114 255 200 0
40 6 115 255 200 0
40 6 116 255 200 0
40 7 63 255 200 0
40 7 64 255 200 0
40 7 65 255 200 0
40 7 66 255 200 0
40 7 70 255 200 0
40 7 71 255 200 0
40 7 74 0 175 0
40 7 114 255 200 0
40 7 115 255 200 0
40 7 116 255 200 0
40 8 64 255 200 0
40 8 65 255 200 0
40 8 115 255 200 0
40 8 116 255 200 0
40 9 43 135 60 0
40 9 44 135 60 0
40 9 64 255 200 0
40 9 65 255 200 0
40 9 115 255 200 0
40 9 116 255 200 0
40 10 43 135 60 0
40 10 44 135 60 0
40 10 63 255 200 0
40 10 64 255 200 0
40 10 65 255 200 0
40 10 115 255 200 0
40 11 63 255 200 0
40 11 64 255 200 0
40 11 65 255 200 0
40 11 115 255 200 0
41 0 0 255 0 255
41 0 1 255 0 255
41 0 2 255 0 255
41 0 3 255 0 255
41 0 4 255 0 255
41 0 5 255 0 255
41 0 6 255 0 255
41 0 7 255 0 255
41 0 8 255 0 255
41 0 9 255 0 255
41 0 10 255 0 255
41 0 11 255 0 255
41 0 12 255 0 255
41 0 13 255 0 255
41 0 14 255 0 255
41 0 15 255 0 255
41 0 16 255 0 255
41 0 17 255 0 255
41 0 18 255 0 255
41 0 19 255 0 255
41 0 20 255 0 255
41 0 21 255 0 255
41 0 22 255 0 255
41 0 23 255 0 255
41 0 24 255 0 255
41 0 25 255 0 255
41 0 26 255 0 255
41 0 27 255 0 255
41 0 28 255 0 255
41 0 29 255 0 255
41 0 30 255 150 255
41 0 31 255 150 255
41 0 32 255 150 255
41 0 33 255 150 255
41 0 34 255 150 255
41 0 35 100 150 245
41 0 36 100 150 245
41 0 37 255 150 255
41 0 38 255 150 255
41 0 39 255 150 255
41 0 40 0 175 0
41 0 41 0 175 0
41 0 45 0 175 0
41 0 46 255 150 255
41 0 47 255 150 255
41 0 48 255 150 255
41 0 50 255 150 255
41 0 51 255 150 255
41 0 52 255 150 255
41 0 65 255 200 0
41 0 66 255 200 0
41 0 81 75 0 75
41 0 82 75 0 75
41 0 83 75 0 75
41 0 84 75 0 75
41 0 85 75 0 75
41 0 86 75 0 75
41 0 87 255 0 255
41 0 88 255 0 255
41 0 89 255 0 255
41 0 90 255 0 255
41 0 91 255 0 255
41 0 92 255 0 255
41 0 93 255 0 255
41 0 94 255 0 255
41 0 95 255 0 255
41 0 96 255 0 255
41 0 97 255 0 255
41 0 98 255 0 255
41 0 99 255 0 255
41 0 100 255 0 255
41 0 101 255 0 255
41 1 33 100 150 245
41 1 34 100 150 245
41 1 35 100 150 245
41 1 36 100 150 245
41 1 37 100 150 245
41 1 39 0 175 0
41 1 40 0 175 0
41 1 41 0 175 0
41 1 42 0 175 0
41 1 43 0 175 0
41 1 44 0 175 0
41 1 45 0 175 0
41 1 46 100 150 245
41 1 47 100 150 245
41 1 51 255 150 255
41 1 52 75 0 75
41 1 53 75 0 75
41 1 54 75 0 75
41 1 55 75 0 75
41 1 56 75 0 75
41 1 58 75 0 75
41 1 59 75 0 75
41 1 60 75 0 75
41 1 61 75 0 75
41 1 62 75 0 75
41 1 63 255 200 0
41 1 64 255 200 0
41 1 65 255 200 0
41 1 66 255 200 0
41 1 70 255 200 0
41 1 72 255 200 0
41 1 73 0 175 0
41 1 74 0 175 0
41 1 80 0 175 0
41 1 81 75 0 75
41 1 82 75 0 75
41 1 110 0 175 0
41 1 111 0 175 0
41 1 112 0 175 0
41 1 113 0 175 0
41 2 32 100 150 245
41 2 33 100 150 245
41 2 34 100 150 245
41 2 35 100 150 245
41 2 36 100 150 245
41 2 37 100 150 245
41 2 38 0 175 0
41 2 39 0 175 0
41 2 40 0 175 0
41 2 41 0 175 0
41 2 42 0 175 0
41 2 43 0 175 0
41 2 44 0 175 0
41 2 45 0 175 0
41 2 46 100 150 245
41 2 47 100 150 245
41 2 48 100 150 245
41 2 50 100 150 245
41 2 62 255 200 0
41 2 63 255 200 0
41 2 64 255 200 0
41 2 65 255 200 0
41 2 72 255 200 0
41 2 73 0 175 0
41 2 81 0 175 0
41 2 110 0 175 0
41 2 111 0 175 0
41 2 112 0 175 0
41 2 114 0 175 0
41 2 115 255 200 0
41 3 34 100 150 245
41 3 35 100 150 245
41 3 36 100 150 245
41 3 37 100 150 245
41 3 41 0 175 0
41 3 42 0 175 0
41 3 43 0 175 0
41 3 44 0 175 0
41 3 46 100 150 245
41 3 47 100 150 245
41 3 48 100 150 245
41 3 49 100 150 245
41 3 61 255 200 0
41 3 62 255 200 0
41 3 63 255 200 0
41 3 64 255 200 0
41 3 65 255 200 0
41 3 72 255 200 0
41 3 73 0 175 0
41 3 74 0 175 0
41 3 75 0 175 0
41 3 76 0 175 0
41 3 79 0 175 0
41 3 80 0 175 0
41 3 81 0 175 0
41 3 109 0 175 0
41 3 110 0 175 0
41 3 111 0 175 0
41 3 112 0 175 0
41 3 113 0 175 0
41 3 114 0 175 0
41 3 115 255 200 0
41 4 62 255 200 0
41 4 63 255 200 0
41 4 64 255 200 0
41 4 71 255 200 0
41 4 72 255 200 0
41 4 73 0 175 0
41 4 74 0 175 0
41 4 111 0 175 0
41 4 112 0 175 0
41 4 114 0 175 0
41 4 115 255 200 0
41 4 116 255 200 0
41 5 61 255 200 0
41 5 62 255 200 0
41 5 63 255 200 0
41 5 64 255 200 0
41 5 71 255 200 0
41 5 72 255 200 0
41 5 115 255 200 0
41 5 116 255 200 0
41 6 61 255 200 0
41 6 62 255 200 0
41 6 63 255 200 0
41 6 64 255 200 0
41 6 71 255 200 0
41 6 72 255 200 0
41 6 75 0 175 0
41 6 76 0 175 0
41 6 115 255 200 0
41 6 116 255 200 0
41 7 63 255 200 0
41 7 64 255 200 0
41 7 70 255 200 0
41 7 71 255 200 0
41 7 72 255 200 0
41 7 74 0 175 0
41 7 115 255 200 0
41 7 116 255 200 0
41 8 43 135 60 0
41 8 64 255 200 0
41 8 70 255 200 0
41 8 71 255 200 0
41 8 115 255 200 0
41 8 116 255 200 0
41 9 43 135 60 0
41 9 44 135 60 0
41 9 62 255 200 0
41 9 63 255 200 0
41 9 64 255 200 0
41 9 71 255 200 0
41 9 115 255 200 0
41 9 116 255 200 0
41 10 43 135 60 0
41 10 44 135 60 0
41 10 48 135 60 0
41 10 61 255 200 0
41 10 62 255 200 0
41 10 63 255 200 0
41 10 115 255 200 0
41 10 116 255 200 0
41 11 61 255 200 0
41 11 62 0 175 0
41 11 115 255 200 0
41 11 116 255 200 0
42 0 0 255 0 255
42 0 1 255 0 255
42 0 2 255 0 255
42 0 3 255 0 255
42 0 4 255 0 255
42 0 5 255 0 255
42 0 6 255 0 255
42 0 7 255 0 255
42 0 8 255 0 255
42 0 9 255 0 255
42 0 10 255 0 255
42 0 11 255 0 255
42 0 12 255 0 255
42 0 13 255 0 255
42 0 14 255 0 255
42 0 15 255 0 255
42 0 16 255 0 255
42 0 17 255 0 255
42 0 18 255 0 255
42 0 19 255 0 255
42 0 20 255 0 255
42 0 21 255 0 255
42 0 22 255 0 255
42 0 23 255 0 255
42 0 24 255 0 255
42 0 25 255 0 255
42 0 26 255 0 255
42 0 27 255 0 255
42 0 28 255 0 255
42 0 29 255 150 255
42 0 30 255 150 255
42 0 31 255 150 255
42 0 32 255 150 255
42 0 33 255 150 255
42 0 34 100 150 245
42 0 35 100 150 245
42 0 36 255 150 255
42 0 37 100 150 245
42 0 38 255 150 255
42 0 39 255 150 255
42 0 40 255 150 255
42 0 41 0 175 0
42 0 42 0 175 0
42 0 46 0 175 0
42 0 47 255 150 255
42 0 48 255 150 255
42 0 63 255 200 0
42 0 64 255 200 0
42 0 65 255 200 0
42 0 82 75 0 75
42 0 83 75 0 75
42 0 84 75 0 75
42 0 85 75 0 75
42 0 86 75 0 75
42 0 87 75 0 75
42 0 88 255 0 255
42 0 89 255 0 255
42 0 90 255 0 255
42 0 91 255 0 255
42 0 92 255 0 255
42 0 93 255 0 255
42 0 94 255 0 255
42 0 95 255 0 255
42 0 96 255 0 255
42 0 97 255 0 255
42 0 98 255 0 255
42 0 99 255 0 255
42 0 100 255 0 255
42 0 101 255 0 255
42 0 102 75 0 75
42 0 103 75 0 75
42 1 32 100 150 245
42 1 33 100 150 245
42 1 34 100 150 245
42 1 36 100 150 245
42 1 37 100 150 245
42 1 38 100 150 245
42 1 40 0 175 0
42 1 41 0 175 0
42 1 42 0 175 0
42 1 44 0 175 0
42 1 45 0 175 0
42 1 46 0 175 0
42 1 47 100 150 245
42 1 48 255 150 255
42 1 51 75 0 75
42 1 52 75 0 75
42 1 53 75 0 75
42 1 54 75 0 75
42 1 55 75 0 75
42 1 56 75 0 75
42 1 57 75 0 75
42 1 58 75 0 75
42 1 59 75 0 75
42 1 60 75 0 75
42 1 61 75 0 75
42 1 62 255 200 0
42 1 63 255 200 0
42 1 65 255 200 0
42 1 66 255 200 0
42 1 70 255 200 0
42 1 81 0 175 0
42 1 82 75 0 75
42 1 83 75 0 75
42 1 103 75 0 75
42 1 104 75 0 75
42 1 105 75 0 75
42 1 111 0 175 0
42 1 112 0 175 0
42 2 32 100 150 245
42 2 33 100 150 245
42 2 34 100 150 245
42 2 36 100 150 245
42 2 37 100 150 245
42 2 38 100 150 245
42 2 40 0 175 0
42 2 41 0 175 0
42 2 42 0 175 0
42 2 43 0 175 0
42 2 44 0 175 0
42 2 45 0 175 0
42 2 47 100 150 245
42 2 48 100 150 245
42 2 50 100 150 245
42 2 60 255 200 0
42 2 61 255 200 0
42 2 62 255 200 0
42 2 63 255 200 0
42 2 74 0 175 0
42 2 81 0 175 0
42 2 82 0 175 0
42 2 111 0 175 0
42 2 112 0 175 0
42 2 113 0 175 0
42 2 115 255 200 0
42 2 116 255 200 0
42 3 33 100 150 245
42 3 34 100 150 245
42 3 35 100 150 245
42 3 36 100 150 245
42 3 37 100 150 245
42 3 42 0 175 0
42 3 43 0 175 0
42 3 44 0 175 0
42 3 46 0 175 0
42 3 47 100 150 245
42 3 60 255 200 0
42 3 61 255 200 0
42 3 62 255 200 0
42 3 63 255 200 0
42 3 72 255 200 0
42 3 73 0 175 0
42 3 74 0 175 0
42 3 75 0 175 0
42 3 79 0 175 0
42 3 80 0 175 0
42 3 81 0 175 0
42 3 82 0 175 0
42 3 107 0 175 0
42 3 108 0 175 0
42 3 109 0 175 0
42 3 110 0 175 0
42 3 111 0 175 0
42 3 112 0 175 0
42 3 113 0 175 0
42 3 114 0 175 0
42 3 115 255 200 0
42 3 116 255 200 0
42 4 60 255 200 0
42 4 61 255 200 0
42 4 62 255 200 0
42 4 63 255 200 0
42 4 72 255 200 0
42 4 73 255 200 0
42 4 75 0 175 0
42 4 76 0 175 0
42 4 77 0 175 0
42 4 110 0 175 0
42 4 111 0 175 0
42 4 112 0 175 0
42 4 113 0 175 0
42 4 114 0 175 0
42 4 115 255 200 0
42 4 116 255 200 0
42 4 117 255 200 0
42 5 60 255 200 0
42 5 61 255 200 0
42 5 62 255 200 0
42 5 72 255 200 0
42 5 73 255 200 0
42 5 74 0 175 0
42 5 75 0 175 0
42 5 76 0 175 0
42 5 77 0 175 0
42 5 78 0 175 0
42 5 110 0 175 0
42 5 111 0 175 0
42 5 112 0 175 0
42 5 113 0 175 0
42 5 115 255 200 0
42 5 116 255 200 0
42 5 117 255 200 0
42 6 43 135 60 0
42 6 44 135 60 0
42 6 59 255 200 0
42 6 60 255 200 0
42 6 61 255 200 0
42 6 62 255 200 0
42 6 63 255 200 0
42 6 64 255 200 0
42 6 65 255 200 0
42 6 71 255 200 0
42 6 72 255 200 0
42 6 73 255 200 0
42 6 74 0 175 0
42 6 75 0 175 0
42 6 76 0 175 0
42 6 77 0 175 0
42 6 115 255 200 0
42 6 116 255 200 0
42 6 117 255 200 0
42 7 43 135 60 0
42 7 44 135 60 0
42 7 61 255 200 0
42 7 62 255 200 0
42 7 63 255 200 0
42 7 64 255 200 0
42 7 65 255 200 0
42 7 66 255 200 0
42 7 71 255 200 0
42 7 73 0 175 0
42 7 74 0 175 0
42 7 75 0 175 0
42 7 76 0 175 0
42 7 115 255 200 0
42 7 116 255 200 0
42 7 117 255 200 0
42 8 42 135 60 0
42 8 43 135 60 0
42 8 44 135 60 0
42 8 61 255 200 0
42 8 62 255 200 0
42 8 63 255 200 0
42 8 64 255 200 0
42 8 71 255 200 0
42 8 115 255 200 0
42 8 116 255 200 0
42 8 117 255 200 0
42 9 43 135 60 0
42 9 44 135 60 0
42 9 47 135 60 0
42 9 60 255 200 0
42 9 61 255 200 0
42 9 62 255 200 0
42 9 63 255 200 0
42 9 64 255 200 0
42 9 116 255 200 0
42 9 117 255 200 0
42 10 41 135 60 0
42 10 42 135 60 0
42 10 47 135 60 0
42 10 48 135 60 0
42 10 60 255 200 0
42 10 61 255 200 0
42 10 62 255 200 0
42 10 116 255 200 0
42 10 117 255 200 0
42 11 60 255 200 0
42 11 61 255 200 0
42 11 116 255 200 0
42 11 117 255 200 0
43 0 0 255 0 255
43 0 1 255 0 255
43 0 2 255 0 255
43 0 3 255 0 255
43 0 4 255 0 255
43 0 5 255 0 255
43 0 6 255 0 255
43 0 7 255 0 255
43 0 8 255 0 255
43 0 9 255 0 255
43 0 10 255 0 255
43 0 11 255 0 255
43 0 12 255 0 255
43 0 13 255 0 255
43 0 14 255 0 255
43 0 15 255 0 255
43 0 16 255 0 255
43 0 17 255 0 255
43 0 18 255 0 255
43 0 19 255 0 255
43 0 20 255 0 255
43 0 21 255 0 255
43 0 22 255 0 255
43 0 23 255 0 255
43 0 24 255 0 255
43 0 25 255 0 255
43 0 26 255 0 255
43 0 27 255 150 255
43 0 28 255 150 255
43 0 29 255 150 255
43 0 30 255 150 255
43 0 31 255 150 255
43 0 32 255 150 255
43 0 33 100 150 245
43 0 34 100 150 245
43 0 35 255 150 255
43 0 36 255 150 255
43 0 37 255 150 255
43 0 38 255 150 255
43 0 39 255 150 255
43 0 40 255 150 255
43 0 41 0 175 0
43 0 42 0 175 0
43 0 47 0 175 0
43 0 48 255 150 255
43 0 61 255 200 0
43 0 62 255 200 0
43 0 63 255 200 0
43 0 82 75 0 75
43 0 83 75 0 75
43 0 84 75 0 75
43 0 85 75 0 75
43 0 86 75 0 75
43 0 87 75 0 75
43 0 88 255 0 255
43 0 89 255 0 255
43 0 90 255 0 255
43 0 91 255 0 255
43 0 92 255 0 255
43 0 93 255 0 255
43 0 94 255 0 255
43 0 95 255 0 255
43 0 96 255 0 255
43 0 97 255 0 255
43 0 98 255 0 255
43 0 99 255 0 255
43 0 100 255 0 255
43 0 101 255 0 255
43 0 102 255 0 255
43 0 103 75 0 75
43 0 104 75 0 75
43 1 33 100 150 245
43 1 34 100 150 245
43 1 37 100 150 245
43 1 38 100 150 245
43 1 41 0 175 0
43 1 42 0 175 0
43 1 43 0 175 0
43 1 45 0 175 0
43 1 46 0 175 0
43 1 47 0 175 0
43 1 48 75 0 75
43 1 52 75 0 75
43 1 53 75 0 75
43 1 54 75 0 75
43 1 55 75 0 75
43 1 56 75 0 75
43 1 57 75 0 75
43 1 58 75 0 75
43 1 59 75 0 75
43 1 60 255 200 0
43 1 73 255 200 0
43 1 81 75 0 75
43 1 82 75 0 75
43 1 83 75 0 75
43 1 84 75 0 75
43 1 88 75 0 75
43 1 96 255 0 255
43 1 103 75 0 75
43 1 104 75 0 75
43 1 105 75 0 75
43 1 113 0 175 0
43 1 115 0 175 0
43 2 32 100 150 245
43 2 33 100 150 245
43 2 34 100 150 245
43 2 37 100 150 245
43 2 38 100 150 245
43 2 40 0 175 0
43 2 41 0 175 0
43 2 42 0 175 0
43 2 43 0 175 0
43 2 44 0 175 0
43 2 45 0 175 0
43 2 46 0 175 0
43 2 51 135 60 0
43 2 52 135 60 0
43 2 58 255 200 0
43 2 59 255 200 0
43 2 60 255 200 0
43 2 61 255 200 0
43 2 73 255 200 0
43 2 74 0 175 0
43 2 75 0 175 0
43 2 108 0 175 0
43 2 116 255 200 0
43 3 33 100 150 245
43 3 34 100 150 245
43 3 35 100 150 245
43 3 36 100 150 245
43 3 37 100 150 245
43 3 38 100 150 245
43 3 43 135 60 0
43 3 44 135 60 0
43 3 45 135 60 0
43 3 58 255 200 0
43 3 59 255 200 0
43 3 60 255 200 0
43 3 61 255 200 0
43 3 62 255 200 0
43 3 73 255 200 0
43 3 74 0 175 0
43 3 76 0 175 0
43 3 77 0 175 0
43 3 78 0 175 0
43 3 79 0 175 0
43 3 80 0 175 0
43 3 108 0 175 0
43 3 109 0 175 0
43 3 110 0 175 0
43 3 116 255 200 0
43 3 117 255 200 0
43 4 35 100 150 245
43 4 36 100 150 245
43 4 37 100 150 245
43 4 43 135 60 0
43 4 44 135 60 0
43 4 45 135 60 0
43 4 59 255 200 0
43 4 60 255 200 0
43 4 61 255 200 0
43 4 72 255 200 0
43 4 73 255 200 0
43 4 75 0 175 0
43 4 76 0 175 0
43 4 77 0 175 0
43 4 78 0 175 0
43 4 109 0 175 0
43 4 110 0 175 0
43 4 111 0 175 0
43 4 116 255 200 0
43 4 117 255 200 0
43 5 43 135 60 0
43 5 44 135 60 0
43 5 45 135 60 0
43 5 58 255 200 0
43 5 59 255 200 0
43 5 60 255 200 0
43 5 61 255 200 0
43 5 62 255 200 0
43 5 72 255 200 0
43 5 73 255 200 0
43 5 74 0 175 0
43 5 75 0 175 0
43 5 76 0 175 0
43 5 77 0 175 0
43 5 78 0 175 0
43 5 110 0 175 0
43 5 111 0 175 0
43 5 112 0 175 0
43 5 113 0 175 0
43 5 116 255 200 0
43 5 117 255 200 0
43 6 43 135 60 0
43 6 44 135 60 0
43 6 45 135 60 0
43 6 58 255 200 0
43 6 59 255 200 0
43 6 60 255 200 0
43 6 61 255 200 0
43 6 62 255 200 0
43 6 65 255 200 0
43 6 66 255 200 0
43 6 72 255 200 0
43 6 73 255 200 0
43 6 74 0 175 0
43 6 75 0 175 0
43 6 76 0 175 0
43 6 77 0 175 0
43 6 78 0 175 0
43 6 111 0 175 0
43 6 112 0 175 0
43 6 113 0 175 0
43 6 116 255 200 0
43 6 117 255 200 0
43 7 42 135 60 0
43 7 43 135 60 0
43 7 44 135 60 0
43 7 45 135 60 0
43 7 59 255 200 0
43 7 60 255 200 0
43 7 61 255 200 0
43 7 62 255 200 0
43 7 63 255 200 0
43 7 65 255 200 0
43 7 66 255 200 0
43 7 71 255 200 0
43 7 72 255 200 0
43 7 74 0 175 0
43 7 75 0 175 0
43 7 76 0 175 0
43 7 116 255 200 0
43 7 117 255 200 0
43 8 41 135 60 0
43 8 42 135 60 0
43 8 43 135 60 0
43 8 44 135 60 0
43 8 46 135 60 0
43 8 59 255 200 0
43 8 60 255 200 0
43 8 61 255 200 0
43 8 62 255 200 0
43 8 116 255 200 0
43 8 117 255 200 0
43 9 40 135 60 0
43 9 41 135 60 0
43 9 42 135 60 0
43 9 43 135 60 0
43 9 44 135 60 0
43 9 46 135 60 0
43 9 47 135 60 0
43 9 59 255 200 0
43 9 60 255 200 0
43 9 61 255 200 0
43 9 116 255 200 0
43 9 117 255 200 0
43 10 41 135 60 0
43 10 42 135 60 0
43 10 44 135 60 0
43 10 47 0 175 0
43 10 59 255 200 0
43 10 60 255 200 0
43 10 116 255 200 0
43 10 117 255 200 0
43 11 58 255 200 0
43 11 59 255 200 0
43 11 117 255 200 0
44 0 0 255 0 255
44 0 1 255 0 255
44 0 2 255 0 255
44 0 3 255 0 255
44 0 4 255 0 255
44 0 5 255 0 255
44 0 6 255 0 255
44 0 7 255 0 255
44 0 8 255 0 255
44 0 9 255 0 255
44 0 10 255 0 255
44 0 11 255 0 255
44 0 12 255 0 255
44 0 13 255 0 255
44 0 14 255 0 255
44 0 15 255 0 255
44 0 16 255 0 255
44 0 17 255 0 255
44 0 18 255 0 255
44 0 19 255 0 255
44 0 20 255 0 255
44 0 21 255 0 255
44 0 22 255 0 255
44 0 23 255 0 255
44 0 24 255 0 255
44 0 25 255 150 255
44 0 26 255 150 255
44 0 27 255 150 255
44 0 28 100 150 245
44 0 29 255 150 255
44 0 30 255 150 255
44 0 31 255 150 255
44 0 32 255 150 255
44 0 33 255 150 255
44 0 34 255 150 255
44 0 35 255 150 255
44 0 37 255 150 255
44 0 38 255 150 255
44 0 39 255 150 255
44 0 40 255 150 255
44 0 41 255 150 255
44 0 42 0 175 0
44 0 60 255 200 0
44 0 61 255 200 0
44 0 83 75 0 75
44 0 84 75 0 75
44 0 85 75 0 75
44 0 86 75 0 75
44 0 87 75 0 75
44 0 88 75 0 75
44 0 89 255 0 255
44 0 90 255 0 255
44 0 91 255 0 255
44 0 92 255 0 255
44 0 93 255 0 255
44 0 94 255 0 255
44 0 95 255 0 255
44 0 96 255 0 255
44 0 97 255 0 255
44 0 98 255 0 255
44 0 99 255 0 255
44 0 100 255 0 255
44 0 101 255 0 255
44 0 102 255 0 255
44 0 103 75 0 75
44 0 104 75 0 75
44 1 26 100 150 245
44 1 27 100 150 245
44 1 28 100 150 245
44 1 29 100 150 245
44 1 30 100 150 245
44 1 33 100 150 245
44 1 34 100 150 245
44 1 38 100 150 245
44 1 39 100 150 245
44 1 41 0 175 0
44 1 42 0 175 0
44 1 43 0 175 0
44 1 46 0 175 0
44 1 47 0 175 0
44 1 48 75 0 75
44 1 49 75 0 75
44 1 50 75 0 75
44 1 51 75 0 75
44 1 52 75 0 75
44 1 53 75 0 75
44 1 54 75 0 75
44 1 55 75 0 75
44 1 56 75 0 75
44 1 57 75 0 75
44 1 58 255 200 0
44 1 59 255 200 0
44 1 82 75 0 75
44 1 83 75 0 75
44 1 84 75 0 75
44 1 95 255 0 255
44 1 96 255 0 255
44 1 103 75 0 75
44 1 104 75 0 75
44 1 105 75 0 75
44 1 106 75 0 75
44 1 107 75 0 75
44 1 108 75 0 75
44 1 109 0 175 0
44 1 115 0 175 0
44 1 117 255 200 0
44 2 27 100 150 245
44 2 28 100 150 245
44 2 29 100 150 245
44 2 30 100 150 245
44 2 33 100 150 245
44 2 34 100 150 245
44 2 37 100 150 245
44 2 38 100 150 245
44 2 39 100 150 245
44 2 42 0 175 0
44 2 43 0 175 0
44 2 44 135 60 0
44 2 45 135 60 0
44 2 57 255 200 0
44 2 58 255 200 0
44 2 59 255 200 0
44 2 73 255 200 0
44 2 75 0 175 0
44 2 108 0 175 0
44 2 109 0 175 0
44 2 117 255 200 0
44 3 27 100 150 245
44 3 28 100 150 245
44 3 29 100 150 245
44 3 33 100 150 245
44 3 34 100 150 245
44 3 35 100 150 245
44 3 36 100 150 245
44 3 37 100 150 245
44 3 38 100 150 245
44 3 43 135 60 0
44 3 44 135 60 0
44 3 45 135 60 0
44 3 57 255 200 0
44 3 58 255 200 0
44 3 59 255 200 0
44 3 60 255 200 0
44 3 73 255 200 0
44 3 74 255 200 0
44 3 75 0 175 0
44 3 76 0 175 0
44 3 77 0 175 0
44 3 78 0 175 0
44 3 79 0 175 0
44 3 80 0 175 0
44 3 108 0 175 0
44 3 109 0 175 0
44 3 110 0 175 0
44 3 116 255 200 0
44 3 117 255 200 0
44 4 15 0 175 0
44 4 35 100 150 245
44 4 36 100 150 245
44 4 37 100 150 245
44 4 43 135 60 0
44 4 44 135 60 0
44 4 45 135 60 0
44 4 57 255 200 0
44 4 58 255 200 0
44 4 59 255 200 0
44 4 60 255 200 0
44 4 73 255 200 0
44 4 74 255 200 0
44 4 75 0 175 0
44 4 76 0 175 0
44 4 77 0 175 0
44 4 110 0 175 0
44 4 111 0 175 0
44 4 116 255 200 0
44 4 117 255 200 0
44 4 118 255 200 0
44 5 43 135 60 0
44 5 44 135 60 0
44 5 45 135 60 0
44 5 57 255 200 0
44 5 58 255 200 0
44 5 59 255 200 0
44 5 60 255 200 0
44 5 73 255 200 0
44 5 74 255 200 0
44 5 75 0 175 0
44 5 76 0 175 0
44 5 77 0 175 0
44 5 78 0 175 0
44 5 110 0 175 0
44 5 111 0 175 0
44 5 116 255 200 0
44 5 117 255 200 0
44 5 118 255 200 0
44 6 43 135 60 0
44 6 44 135 60 0
44 6 45 135 60 0
44 6 46 135 60 0
44 6 57 255 200 0
44 6 58 255 200 0
44 6 59 255 200 0
44 6 60 255 200 0
44 6 65 255 200 0
44 6 72 255 200 0
44 6 73 255 200 0
44 6 74 255 200 0
44 6 75 0 175 0
44 6 76 0 175 0
44 6 77 0 175 0
44 6 78 0 175 0
44 6 111 0 175 0
44 6 112 0 175 0
44 6 113 0 175 0
44 6 116 255 200 0
44 6 117 255 200 0
44 6 118 255 200 0
44 7 43 135 60 0
44 7 44 135 60 0
44 7 45 135 60 0
44 7 46 135 60 0
44 7 57 255 200 0
44 7 58 255 200 0
44 7 59 255 200 0
44 7 60 255 200 0
44 7 61 255 200 0
44 7 65 255 200 0
44 7 66 255 200 0
44 7 72 255 200 0
44 7 73 255 200 0
44 7 74 255 200 0
44 7 75 0 175 0
44 7 76 0 175 0
44 7 77 0 175 0
44 7 116 255 200 0
44 7 117 255 200 0
44 7 118 255 200 0
44 8 43 135 60 0
44 8 44 135 60 0
44 8 45 135 60 0
44 8 46 135 60 0
44 8 57 255 200 0
44 8 58 255 200 0
44 8 59 255 200 0
44 8 116 255 200 0
44 8 117 255 200 0
44 8 118 255 200 0
44 9 42 135 60 0
44 9 43 135 60 0
44 9 46 135 60 0
44 9 47 135 60 0
44 9 57 255 200 0
44 9 58 255 200 0
44 9 59 255 200 0
44 9 117 255 200 0
44 9 118 255 200 0
44 10 42 135 60 0
44 10 43 0 175 0
44 10 47 0 175 0
44 10 57 255 200 0
44 10 58 255 200 0
44 10 59 255 200 0
44 10 117 255 200 0
44 10 118 255 200 0
44 11 57 255 200 0
44 11 58 255 200 0
44 11 117 255 200 0
44 11 118 255 200 0
45 0 0 255 0 255
45 0 1 255 0 255
45 0 2 255 0 255
45 0 3 255 0 255
45 0 4 255 0 255
45 0 5 255 0 255
45 0 6 255 0 255
45 0 7 255 0 255
45 0 8 255 0 255
45 0 9 255 0 255
45 0 10 255 0 255
45 0 11 255 0 255
45 0 12 255 0 255
45 0 13 255 0 255
45 0 14 255 0 255
45 0 15 255 0 255
45 0 16 255 0 255
45 0 17 255 0 255
45 0 18 255 0 255
45 0 19 255 0 255
45 0 20 255 0 255
45 0 21 255 0 255
45 0 22 255 0 255
45 0 23 255 0 255
45 0 24 255 150 255
45 0 25 255 150 255
45 0 26 255 150 255
45 0 27 100 150 245
45 0 28 100 150 245
45 0 29 100 150 245
45 0 30 100 150 245
45 0 31 255 150 255
45 0 32 255 150 255
45 0 33 255 150 255
45 0 34 255 150 255
45 0 35 255 150 255
45 0 36 255 150 255
45 0 37 255 150 255
45 0 38 255 150 255
45 0 39 255 150 255
45 0 40 255 150 255
45 0 41 255 150 255
45 0 42 0 175 0
45 0 59 255 200 0
45 0 60 255 200 0
45 0 83 75 0 75
45 0 84 75 0 75
45 0 85 75 0 75
45 0 86 75 0 75
45 0 87 75 0 75
45 0 88 75 0 75
45 0 89 255 0 255
45 0 90 255 0 255
45 0 91 255 0 255
45 0 92 255 0 255
45 0 93 255 0 255
45 0 94 255 0 255
45 0 95 255 0 255
45 0 96 255 0 255
45 0 97 255 0 255
45 0 98 255 0 255
45 0 99 255 0 255
45 0 100 255 0 255
45 0 101 255 0 255
45 0 102 255 0 255
45 0 103 255 0 255
45 0 104 75 0 75
45 0 105 75 0 75
45 1 25 100 150 245
45 1 26 100 150 245
45 1 27 100 150 245
45 1 28 100 150 245
45 1 29 100 150 245
45 1 30 100 150 245
45 1 34 100 150 245
45 1 39 100 150 245
45 1 42 0 175 0
45 1 43 0 175 0
45 1 44 0 175 0
45 1 48 75 0 75
45 1 49 75 0 75
45 1 50 75 0 75
45 1 51 75 0 75
45 1 52 75 0 75
45 1 53 75 0 75
45 1 54 75 0 75
45 1 55 75 0 75
45 1 56 255 200 0
45 1 57 255 200 0
45 1 58 255 200 0
45 1 82 75 0 75
45 1 83 75 0 75
45 1 84 75 0 75
45 1 85 75 0 75
45 1 86 75 0 75
45 1 94 255 0 255
45 1 95 255 0 255
45 1 96 255 0 255
45 1 97 255 0 255
45 1 103 75 0 75
45 1 104 100 150 245
45 1 105 100 150 245
45 1 106 100 150 245
45 1 107 75 0 75
45 1 108 75 0 75
45 1 109 0 175 0
45 1 110 0 175 0
45 1 115 0 175 0
45 1 116 0 175 0
45 1 117 255 200 0
45 1 118 255 120 50
45 2 25 100 150 245
45 2 26 100 150 245
45 2 27 100 150 245
45 2 28 100 150 245
45 2 29 100 150 245
45 2 30 100 150 245
45 2 34 100 150 245
45 2 35 100 150 245
45 2 38 100 150 245
45 2 39 100 150 245
45 2 55 255 200 0
45 2 56 255 200 0
45 2 57 255 200 0
45 2 58 255 200 0
45 2 74 255 200 0
45 2 75 0 175 0
45 2 76 0 175 0
45 2 103 100 150 245
45 2 104 100 150 245
45 2 105 100 150 245
45 2 106 100 150 245
45 2 109 0 175 0
45 2 110 0 175 0
45 2 117 255 200 0
45 2 118 0 175 0
45 3 26 100 150 245
45 3 27 100 150 245
45 3 28 100 150 245
45 3 29 100 150 245
45 3 30 100 150 245
45 3 34 100 150 245
45 3 35 100 150 245
45 3 36 100 150 245
45 3 37 100 150 245
45 3 38 100 150 245
45 3 39 100 150 245
45 3 40 100 150 245
45 3 55 255 200 0
45 3 56 255 200 0
45 3 57 255 200 0
45 3 58 255 200 0
45 3 74 255 200 0
45 3 75 0 175 0
45 3 76 0 175 0
45 3 78 0 175 0
45 3 105 100 150 245
45 3 109 0 175 0
45 3 110 0 175 0
45 3 111 0 175 0
45 3 117 255 200 0
45 3 118 255 200 0
45 4 27 100 150 245
45 4 28 100 150 245
45 4 29 100 150 245
45 4 35 100 150 245
45 4 36 100 150 245
45 4 37 100 150 245
45 4 55 255 200 0
45 4 56 255 200 0
45 4 57 255 200 0
45 4 58 255 200 0
45 4 74 255 200 0
45 4 75 255 200 0
45 4 76 0 175 0
45 4 110 0 175 0
45 4 111 0 175 0
45 4 117 255 200 0
45 4 118 255 200 0
45 5 55 255 200 0
45 5 56 255 200 0
45 5 57 255 200 0
45 5 58 255 200 0
45 5 74 255 200 0
45 5 75 0 175 0
45 5 78 0 175 0
45 5 110 0 175 0
45 5 111 0 175 0
45 5 112 0 175 0
45 5 113 0 175 0
45 5 117 255 200 0
45 5 118 255 200 0
45 6 55 255 200 0
45 6 56 255 200 0
45 6 57 255 200 0
45 6 73 255 200 0
45 6 74 255 200 0
45 6 75 0 175 0
45 6 76 0 175 0
45 6 111 0 175 0
45 6 112 0 175 0
45 6 113 0 175 0
45 6 117 255 200 0
45 6 118 255 200 0
45 7 43 135 60 0
45 7 55 255 200 0
45 7 56 255 200 0
45 7 57 255 200 0
45 7 72 255 200 0
45 7 73 255 200 0
45 7 74 255 200 0
45 7 75 255 200 0
45 7 117 255 200 0
45 7 118 255 200 0
45 8 55 255 200 0
45 8 56 255 200 0
45 8 57 255 200 0
45 8 117 255 200 0
45 8 118 255 200 0
45 9 43 135 60 0
45 9 55 255 200 0
45 9 56 255 200 0
45 9 57 255 200 0
45 9 118 255 200 0
45 10 55 255 200 0
45 10 56 255 200 0
45 10 57 255 200 0
45 10 118 255 200 0
45 11 56 255 200 0
45 11 57 255 200 0
46 0 0 255 0 255
46 0 1 255 0 255
46 0 2 255 0 255
46 0 3 255 0 255
46 0 4 255 0 255
46 0 5 255 0 255
46 0 6 255 0 255
46 0 7 255 0 255
46 0 8 255 0 255
46 0 9 255 0 255
46 0 10 255 0 255
46 0 11 255 0 255
46 0 12 255 0 255
46 0 13 255 0 255
46 0 14 255 0 255
46 0 15 255 0 255
46 0 16 255 0 255
46 0 17 255 0 255
46 0 18 255 0 255
46 0 19 255 0 255
46 0 20 255 0 255
46 0 21 255 0 255
46 0 22 0 175 0
46 0 23 0 175 0
46 0 24 255 150 255
46 0 25 255 150 255
46 0 26 100 150 245
46 0 27 255 150 255
46 0 28 255 150 255
46 0 29 255 150 255
46 0 30 255 150 255
46 0 31 255 150 255
46 0 32 255 150 255
46 0 33 255 150 255
46 0 34 255 150 255
46 0 35 255 150 255
46 0 36 255 150 255
46 0 38 255 150 255
46 0 39 255 150 255
46 0 40 255 150 255
46 0 41 255 150 255
46 0 42 255 150 255
46 0 43 255 150 255
46 0 57 255 200 0
46 0 85 75 0 75
46 0 86 75 0 75
46 0 87 75 0 75
46 0 88 75 0 75
46 0 89 75 0 75
46 0 90 255 0 255
46 0 91 255 0 255
46 0 92 255 0 255
46 0 93 255 0 255
46 0 94 255 0 255
46 0 95 255 0 255
46 0 96 255 0 255
46 0 97 255 0 255
46 0 98 255 0 255
46 0 99 255 0 255
46 0 100 255 0 255
46 0 101 255 0 255
46 0 102 255 0 255
46 0 103 255 0 255
46 0 104 75 0 75
46 0 105 75 0 75
46 1 22 0 175 0
46 1 23 0 175 0
46 1 24 0 175 0
46 1 25 100 150 245
46 1 26 100 150 245
46 1 29 100 150 245
46 1 30 100 150 245
46 1 31 100 150 245
46 1 34 100 150 245
46 1 35 100 150 245
46 1 39 100 150 245
46 1 40 100 150 245
46 1 42 255 150 255
46 1 43 0 175 0
46 1 44 0 175 0
46 1 45 75 0 75
46 1 48 75 0 75
46 1 49 75 0 75
46 1 50 75 0 75
46 1 51 75 0 75
46 1 52 75 0 75
