ply
format ascii 1.0
element vertex 508
property float x
property float y
property float z
property uchar red
property uchar green
property uchar blue
end_header
1 0 3 100 150 245
1 0 4 100 150 245
1 0 5 100 150 245
1 0 6 100 150 245
1 0 27 100 150 245
1 0 31 100 150 245
2 0 3 100 150 245
2 0 4 100 150 245
2 0 5 100 150 245
2 0 30 100 150 245
2 0 31 100 150 245
2 1 30 100 150 245
2 1 31 100 150 245
3 0 2 100 150 245
3 0 3 100 150 245
3 0 28 100 150 245
3 0 29 100 150 245
3 0 30 100 150 245
3 0 31 100 150 245
3 1 29 100 150 245
3 1 30 100 150 245
3 1 31 100 150 245
4 0 27 100 150 245
4 0 28 100 150 245
4 0 29 100 150 245
4 0 30 100 150 245
4 0 31 100 150 245
4 1 27 100 150 245
4 1 28 100 150 245
4 1 29 100 150 245
4 1 30 100 150 245
4 1 31 100 150 245
4 2 27 100 150 245
4 2 28 100 150 245
4 2 29 100 150 245
4 2 30 100 150 245
4 2 31 100 150 245
5 0 27 100 150 245
5 0 28 100 150 245
5 0 29 100 150 245
5 0 30 100 150 245
5 0 31 100 150 245
5 1 27 100 150 245
5 1 28 100 150 245
5 1 29 100 150 245
5 1 30 100 150 245
5 1 31 100 150 245
5 2 27 100 150 245
5 2 28 100 150 245
5 2 29 100 150 245
5 2 30 100 150 245
5 2 31 100 150 245
6 0 27 100 150 245
6 0 28 100 150 245
6 0 29 100 150 245
6 0 30 100 150 245
6 0 31 100 150 245
6 1 27 100 150 245
6 1 28 100 150 245
6 1 29 100 150 245
6 1 30 100 150 245
6 1 31 100 150 245
6 2 27 100 150 245
6 2 28 100 150 245
6 2 29 100 150 245
6 2 30 100 150 245
6 2 31 100 150 245
7 0 29 100 150 245
7 0 30 100 150 245
7 0 31 100 150 245
7 1 29 100 150 245
7 1 30 100 150 245
7 1 31 100 150 245
7 2 28 100 150 245
7 2 29 100 150 245
7 2 30 100 150 245
7 2 31 100 150 245
8 0 29 100 150 245
8 0 30 100 150 245
8 0 31 100 150 245
8 1 29 100 150 245
8 1 30 100 150 245
8 1 31 100 150 245
8 2 29 100 150 245
8 2 30 100 150 245
8 2 31 100 150 245
9 0 29 100 150 245
9 0 30 100 150 245
9 0 31 100 150 245
9 1 29 100 150 245
9 1 30 100 150 245
9 1 31 100 150 245
9 2 29 100 150 245
9 2 30 100 150 245
9 2 31 100 150 245
10 0 30 100 150 245
10 0 31 100 150 245
10 1 30 100 150 245
10 1 31 100 150 245
10 2 31 100 150 245
11 0 16 100 150 245
11 0 17 100 150 245
11 0 31 100 150 245
12 0 14 100 150 245
12 0 15 100 150 245
12 0 16 100 150 245
12 0 17 100 150 245
12 0 18 100 150 245
12 0 31 100 150 245
12 1 14 100 150 245
12 2 17 100 150 245
13 0 12 100 150 245
13 0 13 100 150 245
13 0 14 100 150 245
13 0 15 100 150 245
13 0 16 100 150 245
13 0 17 100 150 245
13 0 18 100 150 245
13 1 17 100 150 245
13 1 18 100 150 245
13 1 30 100 150 245
14 0 11 100 150 245
14 0 12 100 150 245
14 0 13 100 150 245
14 0 14 100 150 245
14 0 15 100 150 245
14 0 16 100 150 245
14 0 17 100 150 245
14 0 18 100 150 245
14 0 19 100 150 245
14 1 17 100 150 245
14 1 18 100 150 245
14 1 31 100 150 245
15 0 9 100 150 245
15 0 11 100 150 245
15 0 12 100 150 245
15 0 13 100 150 245
15 0 14 100 150 245
15 0 15 100 150 245
15 0 16 100 150 245
15 0 17 100 150 245
15 0 18 100 150 245
15 0 19 100 150 245
15 0 20 100 150 245
15 0 30 100 150 245
15 1 9 100 150 245
15 1 15 100 150 245
15 1 18 100 150 245
15 1 19 100 150 245
15 1 20 100 150 245
15 1 21 100 150 245
16 0 9 100 150 245
16 0 10 100 150 245
16 0 11 100 150 245
16 0 12 100 150 245
16 0 13 100 150 245
16 0 14 100 150 245
16 0 15 100 150 245
16 0 16 100 150 245
16 0 17 100 150 245
16 0 18 100 150 245
16 0 19 100 150 245
16 0 20 100 150 245
16 0 31 100 150 245
16 1 9 100 150 245
16 1 14 100 150 245
16 1 15 100 150 245
16 1 16 100 150 245
16 1 17 100 150 245
16 1 18 100 150 245
16 1 19 100 150 245
16 1 20 100 150 245
16 1 21 100 150 245
17 0 10 100 150 245
17 0 11 100 150 245
17 0 12 100 150 245
17 0 13 100 150 245
17 0 14 100 150 245
17 0 15 100 150 245
17 0 16 100 150 245
17 0 17 100 150 245
17 0 18 100 150 245
17 0 19 100 150 245
17 0 20 100 150 245
17 1 10 100 150 245
17 1 11 100 150 245
17 1 12 100 150 245
17 1 13 100 150 245
17 1 14 100 150 245
17 1 15 100 150 245
17 1 16 100 150 245
17 1 17 100 150 245
17 1 18 100 150 245
17 1 19 100 150 245
17 1 20 100 150 245
17 1 21 100 150 245
18 0 10 100 150 245
18 0 11 100 150 245
18 0 12 100 150 245
18 0 13 100 150 245
18 0 14 100 150 245
18 0 15 100 150 245
18 0 16 100 150 245
18 0 17 100 150 245
18 0 18 100 150 245
18 0 19 100 150 245
18 0 20 100 150 245
18 0 21 100 150 245
18 1 10 100 150 245
18 1 12 100 150 245
18 1 13 100 150 245
18 1 14 100 150 245
18 1 15 100 150 245
18 1 16 100 150 245
18 1 17 100 150 245
18 1 18 100 150 245
18 1 19 100 150 245
18 1 20 100 150 245
18 1 21 100 150 245
19 0 11 100 150 245
19 0 12 100 150 245
19 0 13 100 150 245
19 0 14 100 150 245
19 0 15 100 150 245
19 0 16 100 150 245
19 0 17 100 150 245
19 0 18 100 150 245
19 0 19 100 150 245
19 0 20 100 150 245
19 0 21 100 150 245
19 1 10 100 150 245
19 1 11 100 150 245
19 1 12 100 150 245
19 1 13 100 150 245
19 1 14 100 150 245
19 1 15 100 150 245
19 1 16 100 150 245
19 1 17 100 150 245
19 1 18 100 150 245
19 1 19 100 150 245
19 1 20 100 150 245
19 1 21 100 150 245
20 0 12 100 150 245
20 0 13 100 150 245
20 0 14 100 150 245
20 0 15 100 150 245
20 0 16 100 150 245
20 0 17 100 150 245
20 0 18 100 150 245
20 0 19 100 150 245
20 0 20 100 150 245
20 0 21 100 150 245
20 0 22 100 150 245
20 0 23 100 150 245
20 0 25 100 150 245
20 1 11 100 150 245
20 1 12 100 150 245
20 1 13 100 150 245
20 1 14 100 150 245
20 1 15 100 150 245
20 1 16 100 150 245
20 1 17 100 150 245
20 1 18 100 150 245
20 1 19 100 150 245
20 1 20 100 150 245
20 1 21 100 150 245
20 2 18 100 150 245
21 0 12 100 150 245
21 0 13 100 150 245
21 0 14 100 150 245
21 0 15 100 150 245
21 0 16 100 150 245
21 0 17 100 150 245
21 0 18 100 150 245
21 0 19 100 150 245
21 0 20 100 150 245
21 0 21 100 150 245
21 0 22 100 150 245
21 0 23 100 150 245
21 0 24 100 150 245
21 0 25 100 150 245
21 1 12 100 150 245
21 1 13 100 150 245
21 1 14 100 150 245
21 1 15 100 150 245
21 1 16 100 150 245
21 1 17 100 150 245
21 1 18 100 150 245
21 1 19 100 150 245
21 1 20 100 150 245
21 1 21 100 150 245
21 1 22 100 150 245
21 1 23 100 150 245
21 1 24 100 150 245
21 2 17 100 150 245
21 2 18 100 150 245
21 2 19 100 150 245
22 0 12 100 150 245
22 0 13 100 150 245
22 0 14 100 150 245
22 0 15 100 150 245
22 0 16 100 150 245
22 0 17 100 150 245
22 0 18 100 150 245
22 0 19 100 150 245
22 0 20 100 150 245
22 0 21 100 150 245
22 0 22 100 150 245
22 0 23 100 150 245
22 0 24 100 150 245
22 0 25 100 150 245
22 1 21 100 150 245
22 1 22 100 150 245
22 1 23 100 150 245
22 1 24 100 150 245
22 2 18 100 150 245
22 2 19 100 150 245
23 0 12 100 150 245
23 0 14 100 150 245
23 0 18 100 150 245
23 0 19 100 150 245
23 0 20 100 150 245
23 0 21 100 150 245
23 0 22 100 150 245
23 0 23 100 150 245
23 0 24 100 150 245
23 0 25 100 150 245
23 2 18 100 150 245
23 2 19 100 150 245
24 0 10 100 150 245
24 0 11 100 150 245
24 0 12 100 150 245
24 0 13 100 150 245
24 0 14 100 150 245
24 0 15 100 150 245
24 0 19 100 150 245
24 0 20 100 150 245
24 0 21 100 150 245
24 0 22 100 150 245
24 0 23 100 150 245
24 0 24 100 150 245
24 0 25 100 150 245
24 0 27 100 150 245
24 1 19 100 150 245
24 1 20 100 150 245
24 1 21 100 150 245
24 1 22 100 150 245
24 1 23 100 150 245
25 0 10 100 150 245
25 0 11 100 150 245
25 0 12 100 150 245
25 0 13 100 150 245
25 0 14 100 150 245
25 0 16 100 150 245
25 0 19 100 150 245
25 0 20 100 150 245
25 0 21 100 150 245
25 0 22 100 150 245
25 0 23 100 150 245
25 0 24 100 150 245
25 0 25 100 150 245
25 0 26 100 150 245
25 0 27 100 150 245
25 0 28 100 150 245
25 1 20 100 150 245
25 1 21 100 150 245
25 1 22 100 150 245
25 1 23 100 150 245
25 1 24 100 150 245
25 1 25 100 150 245
25 1 28 100 150 245
26 0 10 100 150 245
26 0 11 100 150 245
26 0 12 100 150 245
26 0 13 100 150 245
26 0 14 100 150 245
26 0 15 100 150 245
26 0 16 100 150 245
26 0 18 100 150 245
26 0 19 100 150 245
26 0 20 100 150 245
26 0 21 100 150 245
26 0 22 100 150 245
26 0 23 100 150 245
26 0 24 100 150 245
26 0 25 100 150 245
26 0 26 100 150 245
26 0 27 100 150 245
26 0 28 100 150 245
26 1 22 100 150 245
26 1 23 100 150 245
26 1 24 100 150 245
26 1 25 100 150 245
26 1 26 100 150 245
27 0 12 100 150 245
27 0 13 100 150 245
27 0 14 100 150 245
27 0 15 100 150 245
27 0 16 100 150 245
27 0 17 100 150 245
27 0 18 100 150 245
27 0 19 100 150 245
27 0 20 100 150 245
27 0 21 100 150 245
27 0 22 100 150 245
27 0 23 100 150 245
27 0 24 100 150 245
27 0 25 100 150 245
27 0 26 100 150 245
27 0 27 100 150 245
27 0 28 100 150 245
27 0 29 100 150 245
27 1 23 100 150 245
27 1 24 100 150 245
27 1 25 100 150 245
27 1 26 100 150 245
27 1 27 100 150 245
27 1 29 100 150 245
27 2 29 100 150 245
28 0 15 100 150 245
28 0 16 100 150 245
28 0 17 100 150 245
28 0 18 100 150 245
28 0 19 100 150 245
28 0 20 100 150 245
28 0 21 100 150 245
28 0 22 100 150 245
28 0 23 100 150 245
28 0 24 100 150 245
28 0 25 100 150 245
28 0 26 100 150 245
28 0 27 100 150 245
28 0 28 100 150 245
28 0 29 100 150 245
28 0 30 100 150 245
28 1 23 100 150 245
28 1 24 100 150 245
28 1 25 100 150 245
28 1 26 100 150 245
28 1 27 100 150 245
28 2 23 100 150 245
28 2 24 100 150 245
28 2 27 100 150 245
28 2 29 100 150 245
28 2 30 100 150 245
29 0 18 100 150 245
29 0 19 100 150 245
29 0 20 100 150 245
29 0 21 100 150 245
29 0 22 100 150 245
29 0 23 100 150 245
29 0 24 100 150 245
29 0 25 100 150 245
29 0 26 100 150 245
29 0 27 100 150 245
29 0 28 100 150 245
29 0 29 100 150 245
29 0 30 100 150 245
29 1 19 100 150 245
29 1 24 100 150 245
29 1 25 100 150 245
29 1 26 100 150 245
29 1 27 100 150 245
29 1 28 100 150 245
29 1 29 100 150 245
29 1 30 100 150 245
29 2 24 100 150 245
29 2 27 100 150 245
29 2 30 100 150 245
30 0 21 100 150 245
30 0 22 100 150 245
30 0 23 100 150 245
30 0 24 100 150 245
30 0 25 100 150 245
30 0 26 100 150 245
30 0 27 100 150 245
30 0 28 100 150 245
30 0 29 100 150 245
30 0 30 100 150 245
30 0 31 100 150 245
30 1 21 100 150 245
30 1 26 100 150 245
30 1 27 100 150 245
30 1 28 100 150 245
30 1 29 100 150 245
30 1 30 100 150 245
30 2 12 100 150 245
30 2 27 100 150 245
30 2 28 100 150 245
30 2 30 100 150 245
30 2 31 100 150 245
31 0 24 100 150 245
31 0 25 100 150 245
31 0 26 100 150 245
31 0 27 100 150 245
31 0 28 100 150 245
31 0 29 100 150 245
31 0 30 100 150 245
31 0 31 100 150 245
31 1 27 100 150 245
31 1 28 100 150 245
31 1 29 100 150 245
31 1 30 100 150 245
31 1 31 100 150 245
31 2 12 100 150 245
31 2 13 100 150 245
31 2 28 100 150 245
31 2 31 100 150 245
