ply
format ascii 1.0
element vertex 2692
property float x
property float y
property float z
property uchar red
property uchar green
property uchar blue
end_header
76 1 6 255 200 0
76 1 7 255 200 0
76 1 8 255 200 0
76 1 10 255 200 0
76 1 11 255 200 0
76 1 19 255 120 50
76 1 20 255 120 50
76 1 34 255 200 0
76 1 35 255 200 0
76 1 36 255 200 0
76 1 37 255 200 0
76 1 101 0 175 0
76 1 102 0 175 0
76 1 103 75 0 75
76 1 104 75 0 75
76 1 113 255 0 255
76 1 114 255 0 255
76 1 115 255 0 255
76 1 116 255 0 255
76 1 117 255 0 255
76 1 118 255 0 255
76 1 119 255 0 255
76 1 120 255 0 255
76 1 123 75 0 75
76 2 5 255 200 0
76 2 6 255 200 0
76 2 7 255 200 0
76 2 8 255 200 0
76 2 10 255 200 0
76 2 11 255 200 0
76 2 18 255 120 50
76 2 19 255 120 50
76 2 36 255 200 0
76 2 37 255 200 0
76 2 102 0 175 0
76 2 103 0 175 0
76 3 5 255 200 0
76 3 6 255 200 0
76 3 7 255 200 0
76 3 8 255 200 0
76 3 10 255 200 0
76 3 11 255 200 0
76 3 19 255 120 50
76 3 35 255 200 0
76 3 36 255 200 0
76 3 37 255 200 0
76 3 95 0 175 0
76 3 100 0 175 0
76 3 101 0 175 0
76 4 4 255 200 0
76 4 5 255 200 0
76 4 6 255 200 0
76 4 7 255 200 0
76 4 10 255 200 0
76 4 11 255 200 0
76 4 35 255 200 0
76 4 36 255 200 0
76 4 37 255 200 0
76 4 94 0 175 0
76 4 95 0 175 0
76 4 96 0 175 0
76 4 100 0 175 0
76 4 101 0 175 0
76 5 4 255 200 0
76 5 5 255 200 0
76 5 6 255 200 0
76 5 7 255 200 0
76 5 10 255 200 0
76 5 11 255 200 0
76 5 34 255 200 0
76 5 35 255 200 0
76 5 36 255 200 0
76 5 37 255 200 0
76 5 93 0 175 0
76 5 96 0 175 0
76 5 97 0 175 0
76 6 4 255 200 0
76 6 5 255 200 0
76 6 6 255 200 0
76 6 7 255 200 0
76 6 10 255 200 0
76 6 11 255 200 0
76 6 33 255 200 0
76 6 34 255 200 0
76 6 35 255 200 0
76 6 36 255 200 0
76 6 37 255 200 0
76 6 92 0 175 0
76 6 93 0 175 0
76 6 94 0 175 0
76 6 95 0 175 0
76 6 96 0 175 0
76 6 97 0 175 0
76 6 98 0 175 0
76 7 4 255 200 0
76 7 5 255 200 0
76 7 6 255 200 0
76 7 7 255 200 0
76 7 10 255 200 0
76 7 11 255 200 0
76 7 33 255 200 0
76 7 34 255 200 0
76 7 35 255 200 0
76 7 36 255 200 0
76 7 37 255 200 0
76 7 92 0 175 0
76 7 93 0 175 0
76 7 94 0 175 0
76 7 95 0 175 0
76 7 96 0 175 0
76 7 97 0 175 0
76 8 5 255 200 0
76 8 6 255 200 0
76 8 7 255 200 0
76 8 10 255 200 0
76 8 11 255 200 0
76 8 36 255 200 0
76 8 37 255 200 0
76 8 93 0 175 0
76 8 97 0 175 0
76 9 36 255 200 0
76 9 37 255 200 0
76 10 36 255 200 0
76 10 37 255 200 0
77 0 0 75 0 75
77 0 1 75 0 75
77 0 2 75 0 75
77 0 3 75 0 75
77 0 4 75 0 75
77 0 5 255 200 0
77 0 6 255 200 0
77 0 11 255 200 0
77 0 12 75 0 75
77 0 13 75 0 75
77 0 14 75 0 75
77 0 15 75 0 75
77 0 17 75 0 75
77 0 18 75 0 75
77 0 19 75 0 75
77 0 20 255 120 50
77 0 21 255 120 50
77 0 22 75 0 75
77 0 23 75 0 75
77 0 24 75 0 75
77 0 25 75 0 75
77 0 26 75 0 75
77 0 27 75 0 75
77 0 28 75 0 75
77 0 29 75 0 75
77 0 30 75 0 75
77 0 32 75 0 75
77 0 33 75 0 75
77 0 34 75 0 75
77 0 35 75 0 75
77 0 36 255 200 0
77 0 37 255 200 0
77 0 122 255 0 255
77 1 4 255 200 0
77 1 5 255 200 0
77 1 6 255 200 0
77 1 7 255 200 0
77 1 10 255 200 0
77 1 11 255 200 0
77 1 19 255 120 50
77 1 20 255 120 50
77 1 21 255 120 50
77 1 36 255 200 0
77 1 37 255 200 0
77 1 102 75 0 75
77 1 103 75 0 75
77 1 104 75 0 75
77 1 105 75 0 75
77 1 106 75 0 75
77 1 114 255 0 255
77 1 115 255 0 255
77 1 116 255 0 255
77 1 117 255 0 255
77 1 118 255 0 255
77 1 119 255 0 255
77 1 120 255 0 255
77 1 121 255 0 255
77 1 122 255 0 255
77 2 3 255 200 0
77 2 4 255 200 0
77 2 5 255 200 0
77 2 6 255 200 0
77 2 11 255 200 0
77 2 12 255 200 0
77 2 36 255 200 0
77 2 37 255 200 0
77 3 3 255 200 0
77 3 4 255 200 0
77 3 5 255 200 0
77 3 6 255 200 0
77 3 11 255 200 0
77 3 36 255 200 0
77 3 37 255 200 0
77 3 98 0 175 0
77 3 99 0 175 0
77 3 100 0 175 0
77 4 3 255 200 0
77 4 4 255 200 0
77 4 5 255 200 0
77 4 6 255 200 0
77 4 11 255 200 0
77 4 35 255 200 0
77 4 36 255 200 0
77 4 37 255 200 0
77 4 99 0 175 0
77 4 100 0 175 0
77 4 101 0 175 0
77 5 4 255 200 0
77 5 5 255 200 0
77 5 6 255 200 0
77 5 11 255 200 0
77 5 12 255 200 0
77 5 34 255 200 0
77 5 35 255 200 0
77 5 36 255 200 0
77 5 37 255 200 0
77 5 94 0 175 0
77 5 97 0 175 0
77 6 4 255 200 0
77 6 5 255 200 0
77 6 6 255 200 0
77 6 10 255 200 0
77 6 11 255 200 0
77 6 12 255 200 0
77 6 33 255 200 0
77 6 34 255 200 0
77 6 35 255 200 0
77 6 36 255 200 0
77 6 37 255 200 0
77 6 92 0 175 0
77 6 93 0 175 0
77 6 94 0 175 0
77 6 95 0 175 0
77 6 96 0 175 0
77 6 97 0 175 0
77 7 3 255 200 0
77 7 4 255 200 0
77 7 5 255 200 0
77 7 6 255 200 0
77 7 11 255 200 0
77 7 33 255 200 0
77 7 34 255 200 0
77 7 35 255 200 0
77 7 36 255 200 0
77 7 37 255 200 0
77 7 38 255 200 0
77 7 93 0 175 0
77 7 94 0 175 0
77 7 95 0 175 0
77 7 96 0 175 0
77 7 97 0 175 0
77 8 3 255 200 0
77 8 4 255 200 0
77 8 5 255 200 0
77 8 6 255 200 0
77 8 10 255 200 0
77 8 11 255 200 0
77 8 36 255 200 0
77 8 37 255 200 0
77 8 93 0 175 0
77 8 96 0 175 0
77 8 97 0 175 0
77 9 36 255 200 0
77 9 37 255 200 0
77 10 37 255 200 0
78 0 0 75 0 75
78 0 1 75 0 75
78 0 2 75 0 75
78 0 3 255 200 0
78 0 4 255 200 0
78 0 11 255 200 0
78 0 12 255 200 0
78 0 13 75 0 75
78 0 14 75 0 75
78 0 15 75 0 75
78 0 16 75 0 75
78 0 17 75 0 75
78 0 18 75 0 75
78 0 19 75 0 75
78 0 20 75 0 75
78 0 21 255 120 50
78 0 22 255 120 50
78 0 23 75 0 75
78 0 24 75 0 75
78 0 25 75 0 75
78 0 26 75 0 75
78 0 28 75 0 75
78 0 30 75 0 75
78 0 37 255 200 0
78 0 38 255 200 0
78 1 2 255 200 0
78 1 3 255 200 0
78 1 4 255 200 0
78 1 11 255 200 0
78 1 12 255 200 0
78 1 20 255 120 50
78 1 21 255 120 50
78 1 37 255 200 0
78 1 38 255 200 0
78 1 103 75 0 75
78 1 104 75 0 75
78 1 105 75 0 75
78 1 106 75 0 75
78 1 113 255 0 255
78 1 114 255 0 255
78 1 116 255 0 255
78 1 117 255 0 255
78 1 118 255 0 255
78 1 119 255 0 255
78 1 120 255 0 255
78 1 125 75 0 75
78 1 126 75 0 75
78 1 127 75 0 75
78 2 2 255 200 0
78 2 3 255 200 0
78 2 4 255 200 0
78 2 5 255 200 0
78 2 11 255 200 0
78 2 12 255 200 0
78 2 20 255 120 50
78 2 37 255 200 0
78 2 38 255 200 0
78 3 1 255 200 0
78 3 2 255 200 0
78 3 3 255 200 0
78 3 4 255 200 0
78 3 11 255 200 0
78 3 12 255 200 0
78 3 20 255 120 50
78 3 37 255 200 0
78 3 38 255 200 0
78 3 98 0 175 0
78 3 99 0 175 0
78 4 2 255 200 0
78 4 3 255 200 0
78 4 4 255 200 0
78 4 5 255 200 0
78 4 11 255 200 0
78 4 12 255 200 0
78 4 37 255 200 0
78 4 38 255 200 0
78 4 93 0 175 0
78 4 98 0 175 0
78 4 99 0 175 0
78 5 2 255 200 0
78 5 3 255 200 0
78 5 4 255 200 0
78 5 5 255 200 0
78 5 6 255 200 0
78 5 11 255 200 0
78 5 12 255 200 0
78 5 37 255 200 0
78 5 38 255 200 0
78 5 94 0 175 0
78 6 2 255 200 0
78 6 3 255 200 0
78 6 4 255 200 0
78 6 5 255 200 0
78 6 6 255 200 0
78 6 11 255 200 0
78 6 12 255 200 0
78 6 34 255 200 0
78 6 37 255 200 0
78 6 38 255 200 0
78 6 95 0 175 0
78 7 2 255 200 0
78 7 3 255 200 0
78 7 4 255 200 0
78 7 5 255 200 0
78 7 6 255 200 0
78 7 11 255 200 0
78 7 12 255 200 0
78 7 37 255 200 0
78 7 38 255 200 0
78 7 39 255 200 0
78 7 96 0 175 0
78 8 1 255 200 0
78 8 2 255 200 0
78 8 3 255 200 0
78 8 4 255 200 0
78 8 5 255 200 0
78 8 6 255 200 0
78 8 11 255 200 0
78 8 12 255 200 0
78 8 37 255 200 0
78 8 38 255 200 0
78 8 97 0 175 0
78 9 37 255 200 0
78 9 38 255 200 0
78 10 37 255 200 0
78 10 38 255 200 0
79 0 0 75 0 75
79 0 1 75 0 75
79 0 2 255 200 0
79 0 3 255 200 0
79 0 6 255 200 0
79 0 12 255 200 0
79 0 13 75 0 75
79 0 14 75 0 75
79 0 15 75 0 75
79 0 16 75 0 75
79 0 17 75 0 75
79 0 18 75 0 75
79 0 19 75 0 75
79 0 20 75 0 75
79 0 21 255 120 50
79 0 22 255 120 50
79 0 23 75 0 75
79 0 24 75 0 75
79 0 26 75 0 75
79 0 38 255 200 0
79 0 121 255 0 255
79 0 122 255 0 255
79 0 123 255 0 255
79 1 0 255 200 0
79 1 1 255 200 0
79 1 2 255 200 0
79 1 3 255 200 0
79 1 11 255 200 0
79 1 12 255 200 0
79 1 13 255 200 0
79 1 21 255 120 50
79 1 22 255 120 50
79 1 38 255 200 0
79 1 39 255 200 0
79 1 112 255 0 255
79 1 113 255 0 255
79 1 115 255 0 255
79 1 116 255 0 255
79 1 117 255 0 255
79 1 118 255 0 255
79 1 119 255 0 255
79 1 120 255 0 255
79 1 121 255 0 255
79 1 122 255 0 255
79 1 126 75 0 75
79 1 127 75 0 75
79 2 0 255 200 0
79 2 1 255 200 0
79 2 2 255 200 0
79 2 3 255 200 0
79 2 4 255 200 0
79 2 12 255 200 0
79 2 13 255 200 0
79 2 21 255 120 50
79 2 38 255 200 0
79 2 39 255 200 0
79 2 40 255 200 0
79 3 0 255 200 0
79 3 1 255 200 0
79 3 2 255 200 0
79 3 3 255 200 0
79 3 12 255 200 0
79 3 13 255 200 0
79 3 20 255 120 50
79 3 21 255 120 50
79 3 38 255 200 0
79 3 39 255 200 0
79 3 90 0 175 0
79 3 93 0 175 0
79 3 96 0 175 0
79 4 0 255 200 0
79 4 1 255 200 0
79 4 2 255 200 0
79 4 3 255 200 0
79 4 4 255 200 0
79 4 12 255 200 0
79 4 13 255 200 0
79 4 38 255 200 0
79 4 39 255 200 0
79 4 91 0 175 0
79 4 92 0 175 0
79 4 93 0 175 0
79 4 94 0 175 0
79 4 95 0 175 0
79 5 0 255 200 0
79 5 1 255 200 0
79 5 2 255 200 0
79 5 3 255 200 0
79 5 4 255 200 0
79 5 5 255 200 0
79 5 12 255 200 0
79 5 13 255 200 0
79 5 38 255 200 0
79 5 39 255 200 0
79 5 91 0 175 0
79 5 93 0 175 0
79 5 94 0 175 0
79 5 95 0 175 0
79 6 0 255 200 0
79 6 2 255 200 0
79 6 3 255 200 0
79 6 4 255 200 0
79 6 5 255 200 0
79 6 12 255 200 0
79 6 13 255 200 0
79 6 38 255 200 0
79 6 39 255 200 0
79 6 91 0 175 0
79 6 94 0 175 0
79 7 0 255 200 0
79 7 1 255 200 0
79 7 2 255 200 0
79 7 3 255 200 0
79 7 4 255 200 0
79 7 12 255 200 0
79 7 13 255 200 0
79 7 38 255 200 0
79 7 39 255 200 0
79 7 94 0 175 0
79 8 0 255 200 0
79 8 1 255 200 0
79 8 2 255 200 0
79 8 3 255 200 0
79 8 4 255 200 0
79 8 12 255 200 0
79 8 13 255 200 0
79 8 38 255 200 0
79 8 39 255 200 0
79 9 38 255 200 0
79 9 39 255 200 0
79 10 38 255 200 0
79 10 39 255 200 0
80 0 0 255 200 0
80 0 1 255 200 0
80 0 12 255 200 0
80 0 13 255 200 0
80 0 14 75 0 75
80 0 15 75 0 75
80 0 17 75 0 75
80 0 18 75 0 75
80 0 19 75 0 75
80 0 21 75 0 75
80 0 22 255 120 50
80 0 23 255 120 50
80 0 38 255 200 0
80 0 39 255 200 0
80 1 0 255 200 0
80 1 1 255 200 0
80 1 2 255 200 0
80 1 12 255 200 0
80 1 13 255 200 0
80 1 21 255 120 50
80 1 22 255 120 50
80 1 23 255 120 50
80 1 38 255 200 0
80 1 39 255 200 0
80 1 40 255 200 0
80 1 42 255 200 0
80 1 115 255 0 255
80 1 116 255 0 255
80 1 117 255 0 255
80 1 118 255 0 255
80 1 119 255 0 255
80 1 120 255 0 255
80 1 121 255 0 255
80 1 122 255 0 255
80 1 123 255 0 255
80 1 125 75 0 75
80 1 126 75 0 75
80 1 127 75 0 75
80 2 0 255 200 0
80 2 1 255 200 0
80 2 2 255 200 0
80 2 12 255 200 0
80 2 13 255 200 0
80 2 39 255 200 0
80 2 40 255 200 0
80 3 0 255 200 0
80 3 1 255 200 0
80 3 12 255 200 0
80 3 13 255 200 0
80 3 21 255 120 50
80 3 22 255 120 50
80 3 38 255 200 0
80 3 39 255 200 0
80 3 96 0 175 0
80 4 0 255 200 0
80 4 1 255 200 0
80 4 2 255 200 0
80 4 3 255 200 0
80 4 12 255 200 0
80 4 13 255 200 0
80 4 38 255 200 0
80 4 39 255 200 0
80 4 90 0 175 0
80 4 92 0 175 0
80 4 93 0 175 0
80 4 94 0 175 0
80 4 95 0 175 0
80 5 0 255 200 0
80 5 1 255 200 0
80 5 2 255 200 0
80 5 3 255 200 0
80 5 12 255 200 0
80 5 13 255 200 0
80 5 38 255 200 0
80 5 39 255 200 0
80 5 91 0 175 0
80 5 93 0 175 0
80 5 94 0 175 0
80 6 0 255 200 0
80 6 1 255 200 0
80 6 2 255 200 0
80 6 3 255 200 0
80 6 12 255 200 0
80 6 13 255 200 0
80 6 17 255 200 0
80 6 38 255 200 0
80 6 39 255 200 0
80 6 90 0 175 0
80 6 91 0 175 0
80 6 96 0 175 0
80 7 0 255 200 0
80 7 1 255 200 0
80 7 2 255 200 0
80 7 3 255 200 0
80 7 12 255 200 0
80 7 13 255 200 0
80 7 39 255 200 0
80 7 40 255 200 0
80 7 91 0 175 0
80 7 92 0 175 0
80 7 95 0 175 0
80 8 0 255 200 0
80 8 1 255 200 0
80 8 2 255 200 0
80 8 3 255 200 0
80 8 12 255 200 0
80 8 13 255 200 0
80 8 39 255 200 0
80 9 38 255 200 0
80 9 39 255 200 0
80 10 38 255 200 0
80 10 39 255 200 0
81 0 13 255 200 0
81 0 14 255 200 0
81 0 15 75 0 75
81 0 16 75 0 75
81 0 17 75 0 75
81 0 22 255 120 50
81 0 23 255 120 50
81 0 24 255 120 50
81 0 39 255 200 0
81 0 40 255 200 0
81 0 122 255 0 255
81 0 124 255 0 255
81 0 125 255 0 255
81 0 126 75 0 75
81 1 13 255 200 0
81 1 14 255 200 0
81 1 22 255 120 50
81 1 23 255 120 50
81 1 39 255 200 0
81 1 40 255 200 0
81 1 105 75 0 75
81 1 106 75 0 75
81 1 107 75 0 75
81 1 114 255 0 255
81 1 115 255 0 255
81 1 116 255 0 255
81 1 117 255 0 255
81 1 118 255 0 255
81 1 119 255 0 255
81 1 120 255 0 255
81 1 121 255 0 255
81 1 122 255 0 255
81 1 123 255 0 255
81 1 124 255 0 255
81 1 126 75 0 75
81 1 127 75 0 75
81 2 0 255 200 0
81 2 13 255 200 0
81 2 14 255 200 0
81 2 22 255 120 50
81 2 39 255 200 0
81 2 40 255 200 0
81 2 46 255 200 0
81 3 0 255 200 0
81 3 13 255 200 0
81 3 14 255 200 0
81 3 39 255 200 0
81 3 40 255 200 0
81 4 0 255 200 0
81 4 1 255 200 0
81 4 13 255 200 0
81 4 14 255 200 0
81 4 39 255 200 0
81 4 40 255 200 0
81 4 91 0 175 0
81 4 93 0 175 0
81 4 94 0 175 0
81 5 0 255 200 0
81 5 1 255 200 0
81 5 13 255 200 0
81 5 14 255 200 0
81 5 39 255 200 0
81 5 40 255 200 0
81 5 92 0 175 0
81 5 94 0 175 0
81 6 0 255 200 0
81 6 1 255 200 0
81 6 13 255 200 0
81 6 14 255 200 0
81 6 16 255 200 0
81 6 17 255 200 0
81 6 18 255 200 0
81 6 39 255 200 0
81 6 40 255 200 0
81 6 93 0 175 0
81 6 94 0 175 0
81 7 0 255 200 0
81 7 1 255 200 0
81 7 13 255 200 0
81 7 14 255 200 0
81 7 39 255 200 0
81 7 40 255 200 0
81 7 93 0 175 0
81 7 94 0 175 0
81 8 0 255 200 0
81 8 13 255 200 0
81 8 14 255 200 0
81 8 39 255 200 0
81 8 40 255 200 0
81 9 39 255 200 0
81 9 40 255 200 0
81 10 39 255 200 0
81 10 40 255 200 0
82 0 14 255 200 0
82 0 15 255 200 0
82 0 16 75 0 75
82 0 19 75 0 75
82 0 20 75 0 75
82 0 21 75 0 75
82 0 22 75 0 75
82 0 23 255 120 50
82 0 24 255 120 50
82 0 40 255 200 0
82 0 124 255 0 255
82 0 125 255 0 255
82 0 126 255 0 255
82 0 127 75 0 75
82 1 14 255 200 0
82 1 15 255 200 0
82 1 23 255 120 50
82 1 24 255 120 50
82 1 40 255 200 0
82 1 105 75 0 75
82 1 106 75 0 75
82 1 107 75 0 75
82 1 108 75 0 75
82 1 109 75 0 75
82 1 114 255 0 255
82 1 115 255 0 255
82 1 116 255 0 255
82 1 117 255 0 255
82 1 118 255 0 255
82 1 119 255 0 255
82 1 120 255 0 255
82 1 121 255 0 255
82 1 122 255 0 255
82 1 123 255 0 255
82 1 124 255 0 255
82 1 125 255 0 255
82 1 126 255 0 255
82 1 127 75 0 75
82 2 13 255 200 0
82 2 14 255 200 0
82 2 15 255 200 0
82 2 16 255 200 0
82 2 23 255 120 50
82 2 40 255 200 0
82 3 14 255 200 0
82 3 15 255 200 0
82 3 40 255 200 0
82 4 14 255 200 0
82 4 15 255 200 0
82 4 16 255 200 0
82 4 39 255 200 0
82 4 40 255 200 0
82 4 92 0 175 0
82 4 93 0 175 0
82 5 13 255 200 0
82 5 14 255 200 0
82 5 15 255 200 0
82 5 16 255 200 0
82 5 40 255 200 0
82 5 93 0 175 0
82 5 94 0 175 0
82 6 14 255 200 0
82 6 15 255 200 0
82 6 16 255 200 0
82 6 17 255 200 0
82 6 18 255 200 0
82 6 19 255 200 0
82 6 40 255 200 0
82 6 94 0 175 0
82 7 13 255 200 0
82 7 14 255 200 0
82 7 15 255 200 0
82 7 16 255 200 0
82 7 39 255 200 0
82 7 40 255 200 0
82 8 13 255 200 0
82 8 14 255 200 0
82 8 15 255 200 0
82 8 39 255 200 0
82 8 40 255 200 0
82 9 40 255 200 0
82 10 40 255 200 0
83 0 14 255 200 0
83 0 15 255 200 0
83 0 16 255 200 0
83 0 17 75 0 75
83 0 18 75 0 75
83 0 19 75 0 75
83 0 20 75 0 75
83 0 21 75 0 75
83 0 22 75 0 75
83 0 23 255 120 50
83 0 24 255 120 50
83 0 25 255 120 50
83 0 40 255 200 0
83 0 41 255 200 0
83 1 14 255 200 0
83 1 15 255 200 0
83 1 16 255 200 0
83 1 23 255 120 50
83 1 24 255 120 50
83 1 40 255 200 0
83 1 41 255 200 0
83 1 115 255 0 255
83 1 116 255 0 255
83 1 117 255 0 255
83 1 118 255 0 255
83 1 119 255 0 255
83 1 120 255 0 255
83 1 121 255 0 255
83 1 122 255 0 255
83 1 123 255 0 255
83 1 124 255 0 255
83 1 125 255 0 255
83 1 126 255 0 255
83 1 127 75 0 75
83 2 14 255 200 0
83 2 15 255 200 0
83 2 16 255 200 0
83 2 24 255 120 50
83 2 40 255 200 0
83 2 41 255 200 0
83 3 14 255 200 0
83 3 15 255 200 0
83 3 16 255 200 0
83 3 40 255 200 0
83 3 41 255 200 0
83 4 14 255 200 0
83 4 15 255 200 0
83 4 16 255 200 0
83 4 40 255 200 0
83 4 41 255 200 0
83 5 14 255 200 0
83 5 15 255 200 0
83 5 16 255 200 0
83 5 40 255 200 0
83 5 41 255 200 0
83 6 13 255 200 0
83 6 14 255 200 0
83 6 15 255 200 0
83 6 16 255 200 0
83 6 17 255 200 0
83 6 18 255 200 0
83 6 19 255 200 0
83 6 40 255 200 0
83 6 41 255 200 0
83 7 13 255 200 0
83 7 14 255 200 0
83 7 15 255 200 0
83 7 16 255 200 0
83 7 17 255 200 0
83 7 40 255 200 0
83 7 41 255 200 0
83 8 14 255 200 0
83 8 15 255 200 0
83 8 16 255 200 0
83 8 40 255 200 0
83 8 41 255 200 0
83 9 40 255 200 0
83 9 41 255 200 0
83 10 40 255 200 0
83 10 41 255 200 0
84 0 16 255 200 0
84 0 17 75 0 75
84 0 18 75 0 75
84 0 19 75 0 75
84 0 20 75 0 75
84 0 21 75 0 75
84 0 22 75 0 75
84 0 23 75 0 75
84 0 24 255 120 50
84 0 25 255 120 50
84 0 41 255 200 0
84 0 42 255 200 0
84 1 15 255 200 0
84 1 16 255 200 0
84 1 24 255 120 50
84 1 41 255 200 0
84 1 42 255 200 0
84 1 108 75 0 75
84 1 109 75 0 75
84 1 116 255 0 255
84 1 117 255 0 255
84 1 118 255 0 255
84 1 125 255 0 255
84 1 126 255 0 255
84 1 127 255 0 255
84 2 15 255 200 0
84 2 16 255 200 0
84 2 24 255 120 50
84 2 41 255 200 0
84 2 42 255 200 0
84 3 15 255 200 0
84 3 16 255 200 0
84 3 24 255 120 50
84 3 41 255 200 0
84 3 42 255 200 0
84 4 16 255 200 0
84 4 41 255 200 0
84 4 42 255 200 0
84 5 12 255 200 0
84 5 13 255 200 0
84 5 16 255 200 0
84 5 17 255 200 0
84 5 41 255 200 0
84 5 42 255 200 0
84 6 12 255 200 0
84 6 13 255 200 0
84 6 16 255 200 0
84 6 17 255 200 0
84 6 18 255 200 0
84 6 19 255 200 0
84 6 20 255 200 0
84 6 41 255 200 0
84 6 42 255 200 0
84 7 12 255 200 0
84 7 13 255 200 0
84 7 16 255 200 0
84 7 17 255 200 0
84 7 41 255 200 0
84 7 42 255 200 0
84 8 13 255 200 0
84 8 15 255 200 0
84 8 16 255 200 0
84 8 41 255 200 0
84 8 42 255 200 0
84 9 41 255 200 0
84 9 42 255 200 0
84 10 41 255 200 0
84 10 42 255 200 0
85 0 16 255 200 0
85 0 17 255 200 0
85 0 18 75 0 75
85 0 19 75 0 75
85 0 20 75 0 75
85 0 21 75 0 75
85 0 22 75 0 75
85 0 23 75 0 75
85 0 24 75 0 75
85 0 25 255 120 50
85 0 26 255 120 50
85 0 41 255 200 0
85 0 42 255 200 0
85 1 16 255 200 0
85 1 17 255 200 0
85 1 25 255 120 50
85 1 41 255 200 0
85 1 42 255 200 0
85 1 107 75 0 75
85 1 108 75 0 75
85 1 109 75 0 75
85 1 110 75 0 75
85 1 116 255 0 255
85 1 120 255 0 255
85 1 121 255 0 255
85 1 122 255 0 255
85 1 123 255 0 255
85 1 124 255 0 255
85 1 125 255 0 255
85 1 127 255 0 255
85 2 16 255 200 0
85 2 17 255 200 0
85 2 41 255 200 0
85 2 42 255 200 0
85 3 16 255 200 0
85 3 17 255 200 0
85 3 41 255 200 0
85 3 42 255 200 0
85 4 16 255 200 0
85 4 17 255 200 0
85 4 41 255 200 0
85 4 42 255 200 0
85 5 16 255 200 0
85 5 17 255 200 0
85 5 18 255 200 0
85 5 41 255 200 0
85 5 42 255 200 0
85 6 12 255 200 0
85 6 16 255 200 0
85 6 17 255 200 0
85 6 18 255 200 0
85 6 19 255 200 0
85 6 20 255 200 0
85 6 41 255 200 0
85 6 42 255 200 0
85 7 16 255 200 0
85 7 17 255 200 0
85 7 18 255 200 0
85 7 41 255 200 0
85 7 42 255 200 0
85 8 16 255 200 0
85 8 17 255 200 0
85 8 41 255 200 0
85 8 42 255 200 0
85 9 41 255 200 0
85 9 42 255 200 0
86 0 17 255 200 0
86 0 18 75 0 75
86 0 19 75 0 75
86 0 20 75 0 75
86 0 21 75 0 75
86 0 25 255 120 50
86 0 26 255 120 50
86 0 27 255 120 50
86 1 16 255 200 0
86 1 17 255 200 0
86 1 25 255 120 50
86 1 107 75 0 75
86 1 108 75 0 75
86 1 109 75 0 75
86 1 110 75 0 75
86 1 111 75 0 75
86 1 119 255 0 255
86 2 16 255 200 0
86 2 17 255 200 0
86 2 25 255 120 50
86 3 16 255 200 0
86 3 17 255 200 0
86 3 44 255 120 50
86 3 45 255 120 50
86 4 16 255 200 0
86 4 17 255 200 0
86 4 44 255 120 50
86 5 16 255 200 0
86 5 17 255 200 0
86 5 18 255 200 0
86 6 17 255 200 0
86 6 18 255 200 0
86 6 19 255 200 0
86 6 20 255 200 0
86 6 21 255 200 0
86 7 17 255 200 0
86 7 18 255 200 0
86 7 19 255 200 0
86 8 17 255 200 0
86 8 18 255 200 0
87 0 17 255 200 0
87 0 18 255 200 0
87 0 19 75 0 75
87 0 20 75 0 75
87 0 26 255 120 50
87 0 27 255 120 50
87 0 44 255 120 50
87 0 45 255 120 50
87 1 17 255 200 0
87 1 18 255 200 0
87 1 19 255 200 0
87 1 26 255 120 50
87 1 44 255 120 50
87 1 45 255 120 50
87 1 110 75 0 75
87 1 112 75 0 75
87 1 121 255 0 255
87 1 122 255 0 255
87 1 123 255 0 255
87 1 124 255 0 255
87 1 125 255 0 255
87 1 126 255 0 255
87 1 127 255 0 255
87 2 17 255 200 0
87 2 18 255 200 0
87 2 19 255 200 0
87 2 44 255 120 50
87 2 45 255 120 50
87 3 17 255 200 0
87 3 18 255 200 0
87 3 19 255 200 0
87 3 44 255 120 50
87 3 45 255 120 50
87 4 17 255 200 0
87 4 18 255 200 0
87 4 19 255 200 0
87 4 44 255 120 50
87 4 45 255 120 50
87 5 7 255 200 0
87 5 14 255 200 0
87 5 17 255 200 0
87 5 18 255 200 0
87 5 19 255 200 0
87 6 2 255 200 0
87 6 7 255 200 0
87 6 18 255 200 0
87 6 19 255 200 0
87 6 20 255 200 0
87 6 21 255 200 0
87 7 18 255 200 0
87 7 19 255 200 0
87 8 18 255 200 0
88 0 17 255 200 0
88 0 18 255 200 0
88 0 19 255 200 0
88 0 26 255 120 50
88 0 27 255 120 50
88 0 28 255 120 50
88 0 45 255 120 50
88 0 46 255 120 50
88 1 18 255 200 0
88 1 19 255 200 0
88 1 27 255 120 50
88 1 45 255 120 50
88 1 46 255 120 50
88 1 109 75 0 75
88 1 110 75 0 75
88 1 112 75 0 75
88 1 113 75 0 75
88 1 119 255 0 255
88 1 120 255 0 255
88 1 124 255 0 255
88 1 125 255 0 255
88 1 126 255 0 255
88 1 127 255 0 255
88 2 17 255 200 0
88 2 18 255 200 0
88 2 19 255 200 0
88 2 27 255 120 50
88 2 45 255 120 50
88 2 46 255 120 50
88 3 16 255 200 0
88 3 17 255 200 0
88 3 18 255 200 0
88 3 19 255 200 0
88 3 45 255 120 50
88 3 46 255 120 50
88 3 47 255 120 50
88 4 16 255 200 0
88 4 17 255 200 0
88 4 18 255 200 0
88 4 19 255 200 0
88 4 45 255 120 50
88 5 4 255 200 0
88 5 16 255 200 0
88 5 17 255 200 0
88 5 18 255 200 0
88 5 19 255 200 0
88 6 18 255 200 0
88 6 19 255 200 0
88 7 2 255 200 0
88 7 3 255 200 0
88 7 18 255 200 0
88 7 19 255 200 0
88 8 18 255 200 0
88 8 19 255 200 0
89 0 16 255 200 0
89 0 19 255 200 0
89 0 20 255 200 0
89 0 27 255 120 50
89 0 28 255 120 50
89 0 29 255 120 50
89 0 46 255 120 50
89 1 15 255 200 0
89 1 16 255 200 0
89 1 19 255 200 0
89 1 20 255 200 0
89 1 27 255 120 50
89 1 46 255 120 50
89 1 110 75 0 75
89 1 111 75 0 75
89 1 112 75 0 75
89 1 119 255 0 255
89 1 123 255 0 255
89 1 124 255 0 255
89 1 125 255 0 255
89 1 126 255 0 255
89 1 127 255 0 255
89 2 15 255 200 0
89 2 16 255 200 0
89 2 19 255 200 0
89 2 20 255 200 0
89 2 27 255 120 50
89 2 45 255 200 0
89 2 46 255 200 0
89 2 47 255 120 50
89 2 110 0 175 0
89 2 111 0 175 0
89 3 15 255 200 0
89 3 16 255 200 0
89 3 19 255 200 0
89 3 20 255 200 0
89 3 46 255 120 50
89 3 47 255 200 0
89 3 109 0 175 0
89 3 110 0 175 0
89 3 111 0 175 0
89 4 15 255 200 0
89 4 16 255 200 0
89 4 17 255 200 0
89 4 19 255 200 0
89 4 20 255 200 0
89 4 45 255 200 0
89 4 46 255 200 0
89 4 47 255 200 0
89 4 109 0 175 0
89 4 110 0 175 0
89 5 4 255 200 0
89 5 15 255 200 0
89 5 16 255 200 0
89 5 19 255 200 0
89 5 20 255 200 0
89 5 46 255 200 0
89 5 47 255 200 0
89 6 4 255 200 0
89 6 19 255 200 0
89 6 20 255 200 0
89 7 4 255 200 0
89 7 19 255 200 0
89 7 20 255 200 0
89 8 19 255 200 0
89 8 20 255 200 0
90 0 14 255 200 0
90 0 15 255 200 0
90 0 19 255 200 0
90 0 20 255 200 0
90 0 28 255 120 50
90 0 46 255 200 0
90 0 47 255 200 0
90 1 15 255 200 0
90 1 19 255 200 0
90 1 20 255 200 0
90 1 45 255 200 0
90 1 46 255 200 0
90 1 47 255 200 0
90 1 110 0 175 0
90 1 122 255 0 255
90 1 123 255 0 255
90 1 124 255 0 255
90 1 125 255 0 255
90 1 126 255 0 255
90 1 127 255 0 255
90 2 15 255 200 0
90 2 19 255 200 0
90 2 20 255 200 0
90 2 46 255 200 0
90 2 47 255 200 0
90 2 110 0 175 0
90 2 111 0 175 0
90 3 13 255 200 0
90 3 14 255 200 0
90 3 15 255 200 0
90 3 19 255 200 0
90 3 20 255 200 0
90 3 46 255 200 0
90 3 47 255 200 0
90 3 107 0 175 0
90 3 108 0 175 0
90 3 109 0 175 0
90 3 110 0 175 0
90 3 111 0 175 0
90 3 112 0 175 0
90 4 13 255 200 0
90 4 14 255 200 0
90 4 15 255 200 0
90 4 19 255 200 0
90 4 20 255 200 0
90 4 45 255 200 0
90 4 46 255 200 0
90 4 47 255 200 0
90 4 108 0 175 0
90 4 109 0 175 0
90 4 110 0 175 0
90 5 13 255 200 0
90 5 14 255 200 0
90 5 15 255 200 0
90 5 19 255 200 0
90 5 20 255 200 0
90 5 45 255 200 0
90 5 46 255 200 0
90 5 47 255 200 0
90 6 19 255 200 0
90 6 20 255 200 0
90 7 19 255 200 0
90 7 20 255 200 0
90 8 19 255 200 0
90 8 20 255 200 0
91 0 20 255 200 0
91 0 21 255 200 0
91 0 29 255 120 50
91 0 45 255 200 0
91 0 46 255 200 0
91 1 20 255 200 0
91 1 21 255 200 0
91 1 44 255 200 0
91 1 45 255 200 0
91 1 46 255 200 0
91 1 122 255 0 255
91 1 123 255 0 255
91 1 124 255 0 255
91 1 125 255 0 255
91 1 126 255 0 255
91 1 127 255 0 255
91 2 20 255 200 0
91 2 21 255 200 0
91 2 45 255 200 0
91 2 46 255 200 0
91 2 111 0 175 0
91 2 112 0 175 0
91 3 12 255 200 0
91 3 13 255 200 0
91 3 20 255 200 0
91 3 21 255 200 0
91 3 44 255 200 0
91 3 45 255 200 0
91 3 46 255 200 0
91 3 105 0 175 0
91 3 106 0 175 0
91 3 107 0 175 0
91 3 108 0 175 0
91 3 111 0 175 0
91 3 112 0 175 0
91 4 12 255 200 0
91 4 13 255 200 0
91 4 20 255 200 0
91 4 21 255 200 0
91 4 43 255 200 0
91 4 44 255 200 0
91 4 45 255 200 0
91 4 46 255 200 0
91 4 106 0 175 0
91 4 107 0 175 0
91 4 108 0 175 0
91 4 110 0 175 0
91 4 111 0 175 0
91 5 8 255 200 0
91 5 12 255 200 0
91 5 13 255 200 0
91 5 20 255 200 0
91 5 21 255 200 0
91 5 43 255 200 0
91 5 44 255 200 0
91 5 45 255 200 0
91 6 20 255 200 0
91 6 21 255 200 0
91 7 20 255 200 0
91 7 21 255 200 0
91 8 20 255 200 0
91 8 21 255 200 0
92 0 20 255 200 0
92 0 21 255 200 0
92 0 22 255 200 0
92 0 29 255 120 50
92 0 30 255 120 50
92 0 43 255 200 0
92 0 44 255 200 0
92 0 45 255 200 0
92 1 21 255 200 0
92 1 29 255 120 50
92 1 42 255 200 0
92 1 43 255 200 0
92 1 44 255 200 0
92 1 45 255 200 0
92 1 111 0 175 0
92 1 112 0 175 0
92 1 113 75 0 75
92 1 117 100 150 245
92 1 121 255 0 255
92 1 122 255 0 255
92 1 123 255 0 255
92 1 124 255 0 255
92 1 125 255 0 255
92 1 126 255 0 255
92 1 127 255 0 255
92 2 21 255 200 0
92 2 43 255 200 0
92 2 44 255 200 0
92 2 45 255 200 0
92 2 117 100 150 245
92 3 11 255 200 0
92 3 12 255 200 0
92 3 21 255 200 0
92 3 42 255 200 0
92 3 43 255 200 0
92 3 44 255 200 0
92 3 45 255 200 0
92 3 104 255 240 150
92 3 105 0 175 0
92 3 112 0 175 0
92 4 12 255 200 0
92 4 20 255 200 0
92 4 21 255 200 0
92 4 22 255 200 0
92 4 41 255 200 0
92 4 42 255 200 0
92 4 43 255 200 0
92 4 44 255 200 0
92 4 105 0 175 0
92 4 106 0 175 0
92 4 107 0 175 0
92 5 12 255 200 0
92 5 20 255 200 0
92 5 21 255 200 0
92 5 42 255 200 0
92 5 43 255 200 0
92 5 44 255 200 0
92 5 63 0 175 0
92 6 20 255 200 0
92 6 21 255 200 0
92 7 20 255 200 0
92 7 21 255 200 0
92 8 20 255 200 0
92 8 21 255 200 0
93 0 21 255 200 0
93 0 22 255 200 0
93 0 30 255 120 50
93 0 41 255 200 0
93 0 42 255 200 0
93 0 43 255 200 0
93 1 21 255 200 0
93 1 22 255 200 0
93 1 30 255 120 50
93 1 41 255 200 0
93 1 42 255 200 0
93 1 43 255 200 0
93 1 112 0 175 0
93 1 113 75 0 75
93 1 114 75 0 75
93 1 115 75 0 75
93 1 116 75 0 75
93 1 117 100 150 245
93 1 121 100 150 245
93 1 122 255 0 255
93 1 123 255 0 255
93 1 125 255 0 255
93 1 126 255 0 255
93 1 127 255 0 255
93 2 21 255 200 0
93 2 22 255 200 0
93 2 41 255 200 0
93 2 42 255 200 0
93 2 43 255 200 0
93 2 62 0 175 0
93 2 63 0 175 0
93 2 112 0 175 0
93 2 116 75 0 75
93 2 117 100 150 245
93 2 118 100 150 245
93 3 21 255 200 0
93 3 22 255 200 0
93 3 41 255 200 0
93 3 42 255 200 0
93 3 43 255 200 0
93 3 62 0 175 0
93 3 65 0 175 0
93 3 105 0 175 0
93 4 21 255 200 0
93 4 22 255 200 0
93 4 40 255 200 0
93 4 41 255 200 0
93 4 42 255 200 0
93 4 43 255 200 0
93 4 62 0 175 0
93 4 64 0 175 0
93 4 104 255 240 150
93 4 105 0 175 0
93 5 20 255 200 0
93 5 21 255 200 0
93 5 22 255 200 0
93 5 40 255 200 0
93 5 41 255 200 0
93 5 42 255 200 0
93 5 63 0 175 0
93 5 64 0 175 0
93 5 104 255 200 0
93 5 109 0 175 0
93 5 110 0 175 0
93 6 20 255 200 0
93 6 21 255 200 0
93 6 22 255 200 0
93 6 109 0 175 0
93 6 110 0 175 0
93 7 21 255 200 0
93 7 22 255 200 0
93 7 109 0 175 0
93 7 110 0 175 0
93 7 111 0 175 0
93 8 21 255 200 0
93 8 22 255 200 0
93 8 104 255 200 0
93 8 109 0 175 0
93 8 110 0 175 0
93 8 111 0 175 0
93 9 22 255 200 0
93 9 103 255 200 0
93 9 104 255 200 0
93 9 109 0 175 0
93 9 110 0 175 0
93 9 111 0 175 0
93 10 104 255 200 0
93 10 110 0 175 0
93 10 111 0 175 0
93 11 110 0 175 0
93 11 111 0 175 0
94 0 22 255 200 0
94 0 23 255 200 0
94 0 30 255 120 50
94 0 39 255 200 0
94 0 40 255 200 0
94 0 41 255 200 0
94 0 42 255 200 0
94 1 22 255 200 0
94 1 23 255 200 0
94 1 30 255 120 50
94 1 39 255 200 0
94 1 40 255 200 0
94 1 41 255 200 0
94 1 42 255 200 0
94 1 67 0 175 0
94 1 68 0 175 0
94 1 112 0 175 0
94 1 113 0 175 0
94 1 114 75 0 75
94 1 115 75 0 75
94 1 116 75 0 75
94 1 117 75 0 75
94 1 122 255 0 255
94 1 123 255 0 255
94 1 125 255 0 255
94 1 126 255 0 255
94 1 127 255 0 255
94 2 22 255 200 0
94 2 23 255 200 0
94 2 39 255 200 0
94 2 40 255 200 0
94 2 41 255 200 0
94 2 42 255 200 0
94 2 113 0 175 0
94 2 116 75 0 75
94 2 117 100 150 245
94 3 22 255 200 0
94 3 23 255 200 0
94 3 39 255 200 0
94 3 40 255 200 0
94 3 41 255 200 0
94 3 42 255 200 0
94 3 65 0 175 0
94 3 66 0 175 0
94 4 22 255 200 0
94 4 23 255 200 0
94 4 38 255 200 0
94 4 39 255 200 0
94 4 40 255 200 0
94 4 41 255 200 0
94 4 61 0 175 0
94 4 63 0 175 0
94 4 65 0 175 0
94 4 102 255 200 0
94 4 103 255 200 0
94 4 104 255 200 0
94 4 108 0 175 0
94 4 109 0 175 0
94 4 110 0 175 0
94 4 111 0 175 0
94 4 112 0 175 0
94 5 21 255 200 0
94 5 22 255 200 0
94 5 23 255 200 0
94 5 38 255 200 0
94 5 39 255 200 0
94 5 40 255 200 0
94 5 64 0 175 0
94 5 65 0 175 0
94 5 68 0 175 0
94 5 103 255 200 0
94 5 104 255 200 0
94 5 108 0 175 0
94 5 109 0 175 0
94 5 110 0 175 0
94 5 111 0 175 0
94 6 21 255 200 0
94 6 22 255 200 0
94 6 23 255 200 0
94 6 64 0 175 0
94 6 65 0 175 0
94 6 66 0 175 0
94 6 67 0 175 0
94 6 68 0 175 0
94 6 102 255 200 0
94 6 103 255 200 0
94 6 108 0 175 0
94 6 109 0 175 0
94 6 110 0 175 0
94 6 111 0 175 0
94 6 112 0 175 0
94 7 22 255 200 0
94 7 23 255 200 0
94 7 39 255 200 0
94 7 65 0 175 0
94 7 66 0 175 0
94 7 68 0 175 0
94 7 102 255 200 0
94 7 103 255 200 0
94 7 108 0 175 0
94 7 109 0 175 0
94 7 110 0 175 0
94 7 111 0 175 0
94 8 22 255 200 0
94 8 23 255 200 0
94 8 40 255 200 0
94 8 65 0 175 0
94 8 102 255 200 0
94 8 103 255 200 0
94 8 104 255 200 0
94 8 108 0 175 0
94 8 109 0 175 0
94 8 110 0 175 0
94 8 111 0 175 0
94 9 22 255 200 0
94 9 23 255 200 0
94 9 102 255 200 0
94 9 103 255 200 0
94 9 104 255 200 0
94 9 108 0 175 0
94 9 109 0 175 0
94 9 110 0 175 0
94 9 111 0 175 0
94 10 102 255 200 0
94 10 103 255 200 0
94 10 104 255 200 0
94 10 105 255 200 0
94 10 109 0 175 0
94 10 110 0 175 0
94 10 111 0 175 0
94 11 109 0 175 0
94 11 110 0 175 0
94 11 111 0 175 0
95 0 22 255 200 0
95 0 23 255 200 0
95 0 38 255 200 0
95 0 39 255 200 0
95 0 40 255 200 0
95 1 22 255 200 0
95 1 23 255 200 0
95 1 38 255 200 0
95 1 39 255 200 0
95 1 114 0 175 0
95 1 115 75 0 75
95 1 116 75 0 75
95 1 122 100 150 245
95 1 124 255 0 255
95 1 125 255 0 255
95 2 23 255 200 0
95 2 38 255 200 0
95 2 39 255 200 0
95 2 40 255 200 0
95 3 23 255 200 0
95 3 38 255 200 0
95 3 39 255 200 0
95 3 40 255 200 0
95 3 114 0 175 0
95 3 118 100 150 245
95 4 22 255 200 0
95 4 23 255 200 0
95 4 37 255 200 0
95 4 38 255 200 0
95 4 39 255 200 0
95 4 65 0 175 0
95 4 66 0 175 0
95 4 67 0 175 0
95 4 101 255 200 0
95 4 102 255 200 0
95 4 108 0 175 0
95 4 110 0 175 0
95 4 111 0 175 0
95 4 112 0 175 0
95 4 113 0 175 0
95 4 114 0 175 0
95 5 22 255 200 0
95 5 23 255 200 0
95 5 37 255 200 0
95 5 38 255 200 0
95 5 64 0 175 0
95 5 65 0 175 0
95 5 66 0 175 0
95 5 67 0 175 0
95 5 70 0 175 0
95 5 101 255 200 0
95 5 104 255 200 0
95 5 108 0 175 0
95 5 109 0 175 0
95 5 111 0 175 0
95 5 112 0 175 0
95 6 23 255 200 0
95 6 63 0 175 0
95 6 65 0 175 0
95 6 66 0 175 0
95 6 67 0 175 0
95 6 101 255 200 0
95 6 105 255 200 0
95 6 108 0 175 0
95 6 111 0 175 0
95 6 112 0 175 0
95 7 23 255 200 0
95 7 39 255 200 0
95 7 64 0 175 0
95 7 65 0 175 0
95 7 67 0 175 0
95 7 101 255 200 0
95 7 104 255 200 0
95 7 108 0 175 0
95 7 111 0 175 0
95 8 23 255 200 0
95 8 65 0 175 0
95 8 66 0 175 0
95 8 67 0 175 0
95 8 100 255 200 0
95 8 101 255 200 0
95 8 102 255 200 0
95 8 104 255 200 0
95 8 105 255 200 0
95 8 108 0 175 0
95 8 109 0 175 0
95 8 111 0 175 0
95 9 23 255 200 0
95 9 67 0 175 0
95 9 100 255 200 0
95 9 101 255 200 0
95 9 102 255 200 0
95 9 104 255 200 0
95 9 105 255 200 0
95 9 108 0 175 0
95 9 109 0 175 0
95 10 101 255 200 0
95 10 102 255 200 0
95 10 105 255 200 0
95 10 109 0 175 0
95 11 109 0 175 0
96 0 23 255 200 0
96 0 24 255 200 0
96 0 37 255 200 0
96 0 38 255 200 0
96 0 39 255 200 0
96 0 73 255 200 0
96 0 74 255 200 0
96 1 23 255 200 0
96 1 24 255 200 0
96 1 36 255 200 0
96 1 37 255 200 0
96 1 38 255 200 0
96 1 39 255 200 0
96 1 73 255 200 0
96 1 74 255 200 0
96 1 114 75 0 75
96 1 123 255 0 255
96 1 124 255 0 255
96 2 23 255 200 0
96 2 24 255 200 0
96 2 37 255 200 0
96 2 38 255 200 0
96 2 39 255 200 0
96 2 68 0 175 0
96 2 74 255 200 0
96 2 115 0 175 0
96 3 23 255 200 0
96 3 24 255 200 0
96 3 36 255 200 0
96 3 37 255 200 0
96 3 38 255 200 0
96 3 66 0 175 0
96 3 67 0 175 0
96 3 69 0 175 0
96 3 74 255 200 0
96 3 114 0 175 0
96 3 115 0 175 0
96 4 23 255 200 0
96 4 24 255 200 0
96 4 35 255 200 0
96 4 36 255 200 0
96 4 37 255 200 0
96 4 38 255 200 0
96 4 66 0 175 0
96 4 67 0 175 0
96 4 69 0 175 0
96 4 70 0 175 0
96 4 99 255 200 0
96 4 108 0 175 0
96 4 109 0 175 0
96 4 114 0 175 0
96 4 115 0 175 0
96 5 23 255 200 0
96 5 24 255 200 0
96 5 35 255 200 0
96 5 36 255 200 0
96 5 37 255 200 0
96 5 64 0 175 0
96 5 65 0 175 0
96 5 66 0 175 0
96 5 99 255 200 0
96 5 100 255 200 0
96 5 105 255 200 0
96 5 108 0 175 0
96 5 109 0 175 0
96 5 113 0 175 0
96 5 114 0 175 0
96 6 23 255 200 0
96 6 24 255 200 0
96 6 64 0 175 0
96 6 65 0 175 0
96 6 66 0 175 0
96 6 99 255 200 0
96 6 100 255 200 0
96 6 108 0 175 0
96 6 114 0 175 0
96 7 23 255 200 0
96 7 24 255 200 0
96 7 65 0 175 0
96 7 99 255 200 0
96 7 100 255 200 0
96 7 108 0 175 0
96 7 114 0 175 0
96 7 115 0 175 0
96 8 23 255 200 0
96 8 24 255 200 0
96 8 99 255 200 0
96 8 100 255 200 0
96 8 108 0 175 0
96 8 114 0 175 0
96 8 115 0 175 0
96 9 23 255 200 0
96 9 24 255 200 0
96 9 99 255 200 0
96 9 100 255 200 0
96 9 109 0 175 0
96 10 100 255 200 0
97 0 24 255 200 0
97 0 25 255 200 0
97 0 35 255 200 0
97 0 36 255 200 0
97 0 37 255 200 0
97 0 38 255 200 0
97 0 72 255 200 0
97 0 73 255 200 0
97 1 24 255 200 0
97 1 25 255 200 0
97 1 35 255 200 0
97 1 36 255 200 0
97 1 37 255 200 0
97 1 72 255 200 0
97 1 73 255 200 0
97 2 24 255 200 0
97 2 35 255 200 0
97 2 36 255 200 0
97 2 37 255 200 0
97 2 67 0 175 0
97 2 72 255 200 0
97 3 24 255 200 0
97 3 25 255 200 0
97 3 34 255 200 0
97 3 35 255 200 0
97 3 36 255 200 0
97 3 37 255 200 0
97 3 66 0 175 0
97 3 69 0 175 0
97 3 72 255 200 0
97 3 115 0 175 0
97 4 24 255 200 0
97 4 33 255 200 0
97 4 34 255 200 0
97 4 35 255 200 0
97 4 36 255 200 0
97 4 66 0 175 0
97 4 67 0 175 0
97 4 97 255 200 0
97 4 98 255 200 0
97 4 106 255 200 0
97 4 108 0 175 0
97 4 112 0 175 0
97 4 113 0 175 0
97 4 114 0 175 0
97 4 115 0 175 0
97 4 119 100 150 245
97 4 121 100 150 245
97 4 122 100 150 245
97 5 24 255 200 0
97 5 25 255 200 0
97 5 33 255 200 0
97 5 34 255 200 0
97 5 35 255 200 0
97 5 65 0 175 0
97 5 66 0 175 0
97 5 67 0 175 0
97 5 99 255 200 0
97 5 113 0 175 0
97 5 114 0 175 0
97 5 115 0 175 0
97 6 24 255 200 0
97 6 69 0 175 0
97 6 96 255 200 0
97 6 97 255 200 0
97 6 98 255 200 0
97 6 99 255 200 0
97 6 112 0 175 0
97 6 113 0 175 0
97 6 114 0 175 0
97 6 115 0 175 0
97 6 116 0 175 0
97 7 2 255 200 0
97 7 24 255 200 0
97 7 25 255 200 0
97 7 97 255 200 0
97 7 98 255 200 0
97 7 99 255 200 0
97 7 112 0 175 0
97 7 113 0 175 0
97 7 114 0 175 0
97 7 115 0 175 0
97 7 116 0 175 0
97 8 24 255 200 0
97 8 97 255 200 0
97 8 98 255 200 0
97 8 99 255 200 0
97 8 112 0 175 0
97 8 113 0 175 0
97 8 114 0 175 0
97 8 115 0 175 0
97 8 116 0 175 0
97 9 24 255 200 0
97 9 97 255 200 0
97 9 98 255 200 0
97 9 99 255 200 0
97 9 113 0 175 0
97 9 114 0 175 0
97 9 115 0 175 0
97 9 116 0 175 0
97 10 113 0 175 0
97 10 114 0 175 0
97 10 115 0 175 0
97 10 116 0 175 0
97 11 77 0 175 0
97 11 113 0 175 0
97 11 114 0 175 0
97 11 115 0 175 0
97 11 116 0 175 0
97 11 117 0 175 0
98 0 24 255 200 0
98 0 25 255 200 0
98 0 33 255 200 0
98 0 34 255 200 0
98 0 35 255 200 0
98 0 71 255 200 0
98 1 24 255 200 0
98 1 25 255 200 0
98 1 33 255 200 0
98 1 34 255 200 0
98 1 35 255 200 0
98 1 115 0 175 0
98 1 116 0 175 0
98 1 117 75 0 75
98 1 118 75 0 75
98 2 24 255 200 0
98 2 25 255 200 0
98 2 33 255 200 0
98 2 34 255 200 0
98 2 35 255 200 0
98 2 36 255 200 0
98 2 67 0 175 0
98 2 68 0 175 0
98 2 69 0 175 0
98 2 71 255 200 0
98 2 116 0 175 0
98 3 24 255 200 0
98 3 25 255 200 0
98 3 33 255 200 0
98 3 34 255 200 0
98 3 35 255 200 0
98 3 69 0 175 0
98 3 107 255 200 0
98 3 115 0 175 0
98 3 116 0 175 0
98 4 24 255 200 0
98 4 25 255 200 0
98 4 32 255 200 0
98 4 33 255 200 0
98 4 34 255 200 0
98 4 35 255 200 0
98 4 67 0 175 0
98 4 71 0 175 0
98 4 97 255 200 0
98 4 106 255 200 0
98 4 114 0 175 0
98 4 115 0 175 0
98 4 121 100 150 245
98 5 24 255 200 0
98 5 25 255 200 0
98 5 32 255 200 0
98 5 33 255 200 0
98 5 34 255 200 0
98 5 106 255 200 0
98 5 115 0 175 0
98 5 116 0 175 0
98 6 24 255 200 0
98 6 25 255 200 0
98 6 96 255 200 0
98 6 97 255 200 0
98 6 106 255 200 0
98 6 116 0 175 0
98 6 117 0 175 0
98 7 1 255 200 0
98 7 24 255 200 0
98 7 25 255 200 0
98 7 96 255 200 0
98 7 97 255 200 0
98 7 110 0 175 0
98 7 116 0 175 0
98 7 117 0 175 0
98 8 24 255 200 0
98 8 25 255 200 0
98 8 96 255 200 0
98 8 97 255 200 0
98 8 110 0 175 0
98 8 115 0 175 0
98 8 116 0 175 0
98 8 117 0 175 0
98 9 24 255 200 0
98 9 25 255 200 0
98 9 96 255 200 0
98 9 97 255 200 0
98 9 106 255 200 0
98 9 110 0 175 0
98 9 114 0 175 0
98 9 116 0 175 0
98 9 117 0 175 0
98 9 118 0 175 0
98 10 110 0 175 0
98 10 111 0 175 0
98 10 115 0 175 0
98 10 116 0 175 0
98 10 117 0 175 0
98 10 118 0 175 0
98 11 77 0 175 0
98 11 78 0 175 0
98 11 111 0 175 0
98 11 115 0 175 0
98 11 116 0 175 0
98 11 117 0 175 0
98 11 118 0 175 0
98 12 73 0 175 0
98 12 76 0 175 0
98 12 77 0 175 0
98 12 78 0 175 0
98 13 78 0 175 0
98 13 79 0 175 0
99 0 25 255 200 0
99 0 26 255 200 0
99 0 33 255 200 0
99 0 34 255 200 0
99 1 25 255 200 0
99 1 26 255 200 0
99 1 33 255 200 0
99 1 34 255 200 0
99 1 116 0 175 0
99 1 117 75 0 75
99 1 118 75 0 75
99 1 119 75 0 75
99 1 120 75 0 75
99 2 25 255 200 0
99 2 26 255 200 0
99 2 33 255 200 0
99 2 34 255 200 0
99 2 69 0 175 0
99 2 116 0 175 0
99 3 25 255 200 0
99 3 26 255 200 0
99 3 33 255 200 0
99 3 68 0 175 0
99 3 69 0 175 0
99 3 70 0 175 0
99 3 116 0 175 0
99 4 25 255 200 0
99 4 26 255 200 0
99 4 33 255 200 0
99 4 62 0 175 0
99 4 69 0 175 0
99 4 70 0 175 0
99 4 71 0 175 0
99 4 107 255 200 0
99 4 120 100 150 245
99 5 25 255 200 0
99 5 26 255 200 0
99 5 62 0 175 0
99 5 70 0 175 0
99 5 71 0 175 0
99 5 72 0 175 0
99 5 107 255 200 0
99 5 109 0 175 0
99 5 110 0 175 0
99 5 115 0 175 0
99 5 116 0 175 0
99 6 25 255 200 0
99 6 26 255 200 0
99 6 62 0 175 0
99 6 109 0 175 0
99 6 110 0 175 0
99 7 25 255 200 0
99 7 26 255 200 0
99 7 109 0 175 0
99 7 110 0 175 0
99 7 117 0 175 0
99 8 25 255 200 0
99 8 26 255 200 0
99 8 72 0 175 0
99 8 73 0 175 0
99 8 95 255 200 0
99 8 109 0 175 0
99 8 110 0 175 0
99 8 116 0 175 0
99 8 117 0 175 0
99 9 25 255 200 0
99 9 26 255 200 0
99 9 73 0 175 0
99 9 74 0 175 0
99 9 75 0 175 0
99 9 76 0 175 0
99 9 109 0 175 0
99 9 110 0 175 0
99 9 116 0 175 0
99 9 117 0 175 0
99 10 72 0 175 0
99 10 73 0 175 0
99 10 74 0 175 0
99 10 75 0 175 0
99 10 76 0 175 0
99 10 77 0 175 0
99 10 79 0 175 0
99 10 107 255 200 0
99 10 110 0 175 0
99 10 111 0 175 0
99 11 72 0 175 0
99 11 73 0 175 0
99 11 74 0 175 0
99 11 76 0 175 0
99 11 78 0 175 0
99 11 79 0 175 0
99 11 111 0 175 0
99 11 112 0 175 0
99 12 73 0 175 0
99 12 76 0 175 0
99 13 74 0 175 0
99 13 76 0 175 0
100 0 26 255 200 0
100 0 33 255 200 0
100 0 34 255 200 0
100 1 26 255 200 0
100 1 33 255 200 0
100 1 34 255 200 0
100 2 26 255 200 0
100 2 33 255 200 0
100 2 34 255 200 0
100 2 69 0 175 0
100 3 26 255 200 0
100 3 34 255 200 0
100 3 62 0 175 0
100 3 63 0 175 0
100 3 69 0 175 0
100 3 117 0 175 0
100 4 26 255 200 0
100 4 33 255 200 0
100 4 34 255 200 0
100 4 62 0 175 0
100 4 63 0 175 0
100 4 68 0 175 0
100 4 69 0 175 0
100 4 70 0 175 0
100 4 71 0 175 0
100 4 72 0 175 0
100 4 107 255 200 0
100 4 110 0 175 0
100 4 117 0 175 0
100 5 26 255 200 0
100 5 61 0 175 0
100 5 62 0 175 0
100 5 63 0 175 0
100 5 67 0 175 0
100 5 68 0 175 0
100 5 69 0 175 0
100 5 70 0 175 0
100 5 71 0 175 0
100 5 109 0 175 0
100 5 110 0 175 0
100 6 26 255 200 0
100 6 61 0 175 0
100 6 62 0 175 0
100 6 63 0 175 0
100 6 107 255 200 0
100 6 109 0 175 0
100 6 110 0 175 0
100 7 26 255 200 0
100 7 62 0 175 0
100 7 63 0 175 0
100 7 74 0 175 0
100 7 79 0 175 0
100 7 109 0 175 0
100 7 110 0 175 0
100 8 26 255 200 0
100 8 74 0 175 0
100 8 75 0 175 0
100 8 76 0 175 0
100 8 109 0 175 0
100 8 110 0 175 0
100 9 26 255 200 0
100 9 72 0 175 0
100 9 73 0 175 0
100 9 76 0 175 0
100 9 78 0 175 0
100 9 80 0 175 0
100 9 107 255 200 0
100 9 109 0 175 0
100 9 110 0 175 0
100 10 72 0 175 0
100 10 73 0 175 0
100 10 74 0 175 0
100 10 75 0 175 0
100 10 76 0 175 0
100 10 77 0 175 0
100 10 79 0 175 0
100 10 108 255 200 0
100 10 109 0 175 0
100 10 110 0 175 0
100 10 111 0 175 0
100 11 72 0 175 0
100 11 73 0 175 0
100 11 74 0 175 0
100 11 76 0 175 0
100 11 77 0 175 0
100 11 78 0 175 0
100 11 110 0 175 0
100 11 111 0 175 0
100 11 112 0 175 0
100 12 71 0 175 0
100 12 72 0 175 0
100 12 73 0 175 0
100 12 74 0 175 0
100 12 75 0 175 0
100 12 76 0 175 0
100 12 78 0 175 0
100 13 71 0 175 0
100 13 75 0 175 0
100 13 76 0 175 0
100 13 79 0 175 0
101 0 26 255 200 0
101 0 27 255 200 0
101 0 34 255 200 0
101 0 35 255 200 0
101 1 26 255 200 0
101 1 27 255 200 0
101 1 34 255 200 0
101 1 63 0 175 0
101 1 117 0 175 0
101 1 126 255 0 255
101 1 127 255 0 255
101 2 26 255 200 0
101 2 27 255 200 0
101 2 34 255 200 0
101 2 35 255 200 0
101 2 69 0 175 0
101 3 26 255 200 0
101 3 27 255 200 0
101 3 34 255 200 0
101 3 35 255 200 0
101 3 60 0 175 0
101 3 61 0 175 0
101 3 62 0 175 0
101 3 69 0 175 0
101 3 71 0 175 0
101 3 72 0 175 0
101 3 118 0 175 0
101 4 26 255 200 0
101 4 27 255 200 0
101 4 34 255 200 0
101 4 60 0 175 0
101 4 61 0 175 0
101 4 62 0 175 0
101 4 63 0 175 0
101 4 108 255 200 0
101 4 110 0 175 0
101 4 116 0 175 0
101 4 117 0 175 0
101 4 118 0 175 0
101 5 26 255 200 0
101 5 27 255 200 0
101 5 60 0 175 0
101 5 61 0 175 0
101 5 62 0 175 0
101 5 63 0 175 0
101 5 64 0 175 0
101 5 68 0 175 0
101 5 74 0 175 0
101 5 75 0 175 0
101 6 26 255 200 0
101 6 27 255 200 0
101 6 61 0 175 0
101 6 62 0 175 0
101 6 63 0 175 0
101 6 64 0 175 0
101 6 74 0 175 0
101 6 75 0 175 0
101 6 76 0 175 0
101 6 109 255 200 0
101 7 26 255 200 0
101 7 27 255 200 0
101 7 62 0 175 0
101 7 63 0 175 0
101 7 68 0 175 0
101 7 69 0 175 0
101 7 74 0 175 0
101 7 75 0 175 0
101 7 76 0 175 0
101 7 109 0 175 0
101 8 26 255 200 0
101 8 27 255 200 0
101 8 69 0 175 0
101 8 70 0 175 0
101 8 74 0 175 0
101 8 75 0 175 0
101 8 76 0 175 0
101 8 78 0 175 0
101 8 79 0 175 0
101 8 109 0 175 0
101 8 110 0 175 0
101 9 26 255 200 0
101 9 27 255 200 0
101 9 69 0 175 0
101 9 71 0 175 0
101 9 74 0 175 0
101 9 75 0 175 0
101 9 76 0 175 0
101 9 109 255 200 0
101 9 110 0 175 0
101 10 67 0 175 0
101 10 68 0 175 0
101 10 69 0 175 0
101 10 70 0 175 0
101 10 74 0 175 0
101 10 75 0 175 0
101 10 108 255 200 0
101 10 109 255 200 0
101 10 110 0 175 0
101 11 59 0 175 0
101 11 69 0 175 0
101 11 72 0 175 0
101 11 73 0 175 0
101 11 74 0 175 0
101 11 75 0 175 0
101 11 109 255 200 0
101 11 110 0 175 0
101 11 112 0 175 0
101 12 73 0 175 0
101 12 74 0 175 0
101 12 76 0 175 0
101 12 77 0 175 0
101 12 78 0 175 0
101 12 80 0 175 0
101 13 74 0 175 0
101 13 75 0 175 0
101 13 76 0 175 0
101 13 79 0 175 0
102 0 27 255 200 0
102 0 35 255 200 0
102 1 26 255 200 0
102 1 27 255 200 0
102 1 34 255 200 0
102 1 35 255 200 0
102 1 117 0 175 0
102 1 118 0 175 0
102 2 27 255 200 0
102 2 35 255 200 0
102 2 72 255 200 0
102 2 73 255 200 0
102 2 118 0 175 0
102 2 119 0 175 0
102 3 26 255 200 0
102 3 27 255 200 0
102 3 35 255 200 0
102 3 61 0 175 0
102 3 73 255 200 0
102 3 118 0 175 0
102 3 119 0 175 0
102 4 27 255 200 0
102 4 35 255 200 0
102 4 62 0 175 0
102 4 72 255 200 0
102 4 108 255 200 0
102 4 109 255 200 0
102 4 110 0 175 0
102 4 117 0 175 0
102 4 118 0 175 0
102 5 27 255 200 0
102 5 59 0 175 0
102 5 60 0 175 0
102 5 61 0 175 0
102 5 62 0 175 0
102 5 63 0 175 0
102 5 72 255 200 0
102 5 73 255 200 0
102 5 74 0 175 0
102 5 109 255 200 0
102 5 110 0 175 0
102 5 111 0 175 0
102 6 27 255 200 0
102 6 60 0 175 0
102 6 61 0 175 0
102 6 62 0 175 0
102 6 63 0 175 0
102 6 73 0 175 0
102 6 74 0 175 0
102 6 75 0 175 0
102 6 108 255 200 0
102 7 27 255 200 0
102 7 60 0 175 0
102 7 61 0 175 0
102 7 62 0 175 0
102 7 63 0 175 0
102 7 67 0 175 0
102 7 68 0 175 0
102 7 72 0 175 0
102 7 73 0 175 0
102 7 74 0 175 0
102 7 75 0 175 0
102 7 76 0 175 0
102 7 108 255 200 0
102 7 109 255 200 0
102 8 27 255 200 0
102 8 60 0 175 0
102 8 63 0 175 0
102 8 67 0 175 0
102 8 68 0 175 0
102 8 69 0 175 0
102 8 70 0 175 0
102 8 71 0 175 0
102 8 75 0 175 0
102 8 76 0 175 0
102 8 77 0 175 0
102 8 78 0 175 0
102 8 79 0 175 0
102 8 89 255 200 0
102 8 90 255 200 0
102 8 108 255 200 0
102 8 109 255 200 0
102 8 110 255 200 0
102 9 27 255 200 0
102 9 60 0 175 0
102 9 67 0 175 0
102 9 68 0 175 0
102 9 69 0 175 0
102 9 70 0 175 0
102 9 71 0 175 0
102 9 74 0 175 0
102 9 75 0 175 0
102 9 89 255 200 0
102 9 90 255 200 0
102 9 108 255 200 0
102 9 109 255 200 0
102 10 59 0 175 0
102 10 67 0 175 0
102 10 68 0 175 0
102 10 69 0 175 0
102 10 70 0 175 0
102 10 75 0 175 0
102 10 76 0 175 0
102 10 89 255 200 0
102 10 90 255 200 0
102 10 109 255 200 0
102 10 110 0 175 0
102 11 58 0 175 0
102 11 59 0 175 0
102 11 60 0 175 0
102 11 68 0 175 0
102 11 69 0 175 0
102 11 70 0 175 0
102 11 71 0 175 0
102 11 74 0 175 0
102 11 75 0 175 0
102 11 89 255 200 0
102 11 90 255 200 0
102 11 110 0 175 0
102 12 59 0 175 0
102 12 60 0 175 0
102 12 61 0 175 0
102 12 62 0 175 0
102 12 69 0 175 0
102 12 71 0 175 0
102 12 73 0 175 0
102 12 74 0 175 0
102 12 75 0 175 0
102 12 78 0 175 0
102 13 70 0 175 0
102 13 71 0 175 0
102 13 74 0 175 0
102 13 75 0 175 0
102 13 76 0 175 0
102 13 78 0 175 0
103 0 27 255 200 0
103 0 28 255 200 0
103 0 35 255 200 0
103 0 36 255 200 0
103 0 69 255 200 0
103 1 27 255 200 0
103 1 28 255 200 0
103 1 35 255 200 0
103 1 36 255 200 0
103 1 118 0 175 0
103 1 119 75 0 75
103 2 27 255 200 0
103 2 28 255 200 0
103 2 35 255 200 0
103 2 36 255 200 0
103 2 70 0 175 0
103 2 71 255 200 0
103 3 27 255 200 0
103 3 28 255 200 0
103 3 35 255 200 0
103 3 36 255 200 0
103 3 71 255 200 0
103 3 72 255 200 0
103 3 119 0 175 0
103 4 27 255 200 0
103 4 28 255 200 0
103 4 35 255 200 0
103 4 36 255 200 0
103 4 70 255 200 0
103 4 71 255 200 0
103 4 72 255 200 0
103 4 109 255 200 0
103 4 117 0 175 0
103 4 118 0 175 0
103 4 119 0 175 0
103 5 27 255 200 0
103 5 28 255 200 0
103 5 59 0 175 0
103 5 60 0 175 0
103 5 61 0 175 0
103 5 70 255 200 0
103 5 71 255 200 0
103 5 72 255 200 0
103 5 109 255 200 0
103 5 111 0 175 0
103 6 27 255 200 0
103 6 28 255 200 0
103 6 59 0 175 0
103 6 60 0 175 0
103 6 61 0 175 0
103 6 62 0 175 0
103 7 27 255 200 0
103 7 28 255 200 0
103 7 59 0 175 0
103 7 60 0 175 0
103 7 61 0 175 0
103 7 62 0 175 0
103 7 63 0 175 0
103 7 67 0 175 0
103 7 68 0 175 0
103 7 73 0 175 0
103 7 74 0 175 0
103 7 109 255 200 0
103 8 27 255 200 0
103 8 28 255 200 0
103 8 60 0 175 0
103 8 61 0 175 0
103 8 62 0 175 0
103 8 66 0 175 0
103 8 67 0 175 0
103 8 68 0 175 0
103 8 74 0 175 0
103 8 75 0 175 0
103 8 76 0 175 0
103 8 88 255 200 0
103 8 89 255 200 0
103 8 109 255 200 0
103 8 110 255 200 0
103 9 27 255 200 0
103 9 28 255 200 0
103 9 59 0 175 0
103 9 60 0 175 0
103 9 61 0 175 0
103 9 62 0 175 0
103 9 63 0 175 0
103 9 64 0 175 0
103 9 66 0 175 0
103 9 67 0 175 0
103 9 68 0 175 0
103 9 69 0 175 0
103 9 71 0 175 0
103 9 74 0 175 0
103 9 75 0 175 0
103 9 76 0 175 0
103 9 77 0 175 0
103 9 78 0 175 0
103 9 79 0 175 0
103 9 88 255 200 0
103 9 89 255 200 0
103 10 60 0 175 0
103 10 63 0 175 0
103 10 64 0 175 0
103 10 67 0 175 0
103 10 68 0 175 0
103 10 69 0 175 0
103 10 70 0 175 0
103 10 71 0 175 0
103 10 72 0 175 0
103 10 73 0 175 0
103 10 75 0 175 0
103 10 76 0 175 0
103 10 77 0 175 0
103 10 88 255 200 0
103 10 89 255 200 0
103 11 58 0 175 0
103 11 59 0 175 0
103 11 60 0 175 0
103 11 62 0 175 0
103 11 63 0 175 0
103 11 64 0 175 0
103 11 65 0 175 0
103 11 67 0 175 0
103 11 68 0 175 0
103 11 69 0 175 0
103 11 72 0 175 0
103 11 73 0 175 0
103 11 75 0 175 0
103 11 76 0 175 0
103 11 88 255 200 0
103 11 89 255 200 0
103 12 58 0 175 0
103 12 59 0 175 0
103 12 60 0 175 0
103 12 61 0 175 0
103 12 62 0 175 0
103 12 68 0 175 0
103 12 69 0 175 0
103 12 70 0 175 0
103 12 71 0 175 0
103 12 72 0 175 0
103 12 73 0 175 0
103 12 74 0 175 0
103 12 75 0 175 0
103 12 76 0 175 0
103 12 88 255 200 0
103 13 69 0 175 0
103 13 70 0 175 0
103 13 71 0 175 0
103 13 72 0 175 0
103 13 73 0 175 0
103 13 74 0 175 0
103 13 88 255 200 0
104 0 36 255 200 0
104 0 70 255 200 0
104 1 28 255 200 0
104 1 36 255 200 0
104 1 68 255 200 0
104 1 70 255 200 0
104 1 118 0 175 0
104 1 119 0 175 0
104 1 120 75 0 75
104 2 36 255 200 0
104 2 69 255 200 0
104 2 70 255 200 0
104 3 28 255 200 0
104 3 36 255 200 0
104 3 37 255 200 0
104 3 69 255 200 0
104 3 70 255 200 0
104 4 28 255 200 0
104 4 36 255 200 0
104 4 69 255 200 0
