ply
format ascii 1.0
element vertex 2761
property float x
property float y
property float z
property uchar red
property uchar green
property uchar blue
end_header
17 0 41 75 0 75
17 0 42 255 0 255
17 0 43 255 0 255
17 0 44 255 0 255
17 0 45 255 0 255
17 0 46 255 0 255
17 0 47 100 150 245
17 0 48 255 0 255
17 0 49 75 0 75
17 0 50 75 0 75
17 0 51 75 0 75
17 0 52 75 0 75
17 1 3 100 150 245
17 1 4 100 150 245
17 1 19 0 175 0
17 1 20 0 175 0
17 1 21 100 150 245
17 1 22 100 150 245
17 1 23 100 150 245
17 1 24 100 150 245
17 1 25 100 150 245
17 1 26 100 150 245
17 1 27 100 150 245
17 1 28 100 150 245
17 1 29 100 150 245
17 1 30 100 150 245
17 1 31 100 150 245
17 1 35 0 175 0
17 1 36 0 175 0
17 1 37 0 175 0
17 1 38 0 175 0
17 1 39 0 175 0
17 1 46 100 150 245
17 1 47 100 150 245
17 1 48 100 150 245
17 1 49 100 150 245
17 1 55 255 200 0
17 2 22 100 150 245
17 2 23 100 150 245
17 2 25 100 150 245
17 2 26 100 150 245
17 2 27 100 150 245
17 2 28 100 150 245
17 2 29 100 150 245
17 2 35 0 175 0
17 2 36 0 175 0
17 2 37 0 175 0
17 2 38 0 175 0
17 2 46 100 150 245
17 2 47 100 150 245
17 2 48 100 150 245
17 2 49 100 150 245
17 2 55 255 200 0
17 2 56 255 200 0
17 3 38 0 175 0
17 3 54 255 200 0
17 3 55 255 200 0
17 3 56 255 200 0
17 4 54 255 200 0
17 4 55 255 200 0
17 4 56 255 200 0
17 5 55 255 200 0
17 5 56 255 200 0
17 6 55 255 200 0
17 6 56 255 200 0
18 0 0 255 150 255
18 0 1 255 150 255
18 0 2 255 150 255
18 0 3 255 0 255
18 0 4 255 0 255
18 0 5 255 0 255
18 0 6 255 0 255
18 0 7 255 0 255
18 0 8 255 0 255
18 0 9 255 0 255
18 0 10 255 0 255
18 0 11 255 0 255
18 0 12 255 0 255
18 0 13 255 0 255
18 0 14 255 0 255
18 0 15 255 0 255
18 0 16 255 0 255
18 0 17 255 0 255
18 0 18 255 0 255
18 0 19 0 175 0
18 0 20 0 175 0
18 0 21 0 175 0
18 0 22 100 150 245
18 0 23 255 150 255
18 0 24 100 150 245
18 0 25 255 150 255
18 0 26 255 150 255
18 0 27 255 150 255
18 0 28 100 150 245
18 0 29 75 0 75
18 0 30 75 0 75
18 0 31 75 0 75
18 0 32 75 0 75
18 0 33 75 0 75
18 0 34 75 0 75
18 0 35 0 175 0
18 0 36 0 175 0
18 0 37 0 175 0
18 0 38 75 0 75
18 0 39 75 0 75
18 0 40 75 0 75
18 0 41 75 0 75
18 0 42 255 0 255
18 0 43 255 0 255
18 0 44 255 0 255
18 0 45 255 0 255
18 0 46 255 0 255
18 0 47 255 0 255
18 0 48 255 0 255
18 0 49 75 0 75
18 0 50 75 0 75
18 0 51 75 0 75
18 0 52 0 175 0
18 0 53 0 175 0
18 1 18 0 175 0
18 1 19 0 175 0
18 1 20 0 175 0
18 1 21 0 175 0
18 1 22 100 150 245
18 1 23 100 150 245
18 1 24 100 150 245
18 1 25 100 150 245
18 1 26 100 150 245
18 1 27 100 150 245
18 1 28 100 150 245
18 1 29 100 150 245
18 1 30 100 150 245
18 1 33 255 200 0
18 1 34 255 200 0
18 1 35 0 175 0
18 1 36 0 175 0
18 1 37 0 175 0
18 1 38 0 175 0
18 1 39 0 175 0
18 1 47 100 150 245
18 1 48 100 150 245
18 1 49 100 150 245
18 1 50 100 150 245
18 1 52 0 175 0
18 1 55 255 200 0
18 1 56 255 200 0
18 1 57 255 200 0
18 2 22 100 150 245
18 2 23 100 150 245
18 2 24 100 150 245
18 2 25 100 150 245
18 2 26 100 150 245
18 2 27 100 150 245
18 2 28 100 150 245
18 2 33 255 200 0
18 2 34 255 200 0
18 2 35 0 175 0
18 2 36 0 175 0
18 2 37 0 175 0
18 2 38 0 175 0
18 2 39 0 175 0
18 2 47 100 150 245
18 2 48 100 150 245
18 2 49 100 150 245
18 2 50 100 150 245
18 2 55 255 200 0
18 2 56 255 200 0
18 2 57 255 200 0
18 3 33 255 200 0
18 3 34 255 200 0
18 3 35 255 200 0
18 3 36 0 175 0
18 3 37 0 175 0
18 3 38 0 175 0
18 3 39 0 175 0
18 3 55 255 200 0
18 3 56 255 200 0
18 3 57 255 200 0
18 4 34 255 200 0
18 4 35 255 200 0
18 4 55 255 200 0
18 4 56 255 200 0
18 4 57 255 200 0
18 5 34 255 200 0
18 5 56 255 200 0
18 5 57 255 200 0
18 6 56 255 200 0
18 6 57 255 200 0
19 0 0 255 150 255
19 0 1 255 0 255
19 0 2 255 0 255
19 0 3 255 0 255
19 0 4 255 0 255
19 0 5 255 0 255
19 0 6 255 0 255
19 0 7 255 0 255
19 0 8 255 0 255
19 0 9 255 0 255
19 0 10 255 0 255
19 0 11 255 0 255
19 0 12 255 0 255
19 0 13 255 0 255
19 0 14 255 0 255
19 0 15 255 0 255
19 0 16 255 0 255
19 0 17 255 150 255
19 0 18 255 150 255
19 0 19 0 175 0
19 0 20 0 175 0
19 0 21 0 175 0
19 0 22 0 175 0
19 0 23 255 150 255
19 0 24 255 150 255
19 0 25 255 150 255
19 0 26 255 150 255
19 0 27 255 150 255
19 0 28 75 0 75
19 0 29 75 0 75
19 0 30 75 0 75
19 0 31 75 0 75
19 0 32 75 0 75
19 0 33 75 0 75
19 0 34 255 200 0
19 0 35 255 200 0
19 0 36 0 175 0
19 0 37 0 175 0
19 0 39 75 0 75
19 0 40 75 0 75
19 0 41 75 0 75
19 0 42 75 0 75
19 0 43 255 0 255
19 0 44 255 0 255
19 0 45 255 0 255
19 0 46 255 0 255
19 0 47 255 0 255
19 0 48 100 150 245
19 0 49 255 0 255
19 0 50 75 0 75
19 0 51 75 0 75
19 0 53 0 175 0
19 0 54 0 175 0
19 0 55 0 175 0
19 1 18 0 175 0
19 1 19 0 175 0
19 1 20 0 175 0
19 1 21 0 175 0
19 1 22 100 150 245
19 1 23 100 150 245
19 1 24 100 150 245
19 1 25 100 150 245
19 1 26 100 150 245
19 1 27 100 150 245
19 1 28 100 150 245
19 1 32 255 200 0
19 1 33 255 200 0
19 1 34 255 200 0
19 1 35 255 200 0
19 1 36 0 175 0
19 1 37 0 175 0
19 1 38 0 175 0
19 1 39 0 175 0
19 1 40 0 175 0
19 1 48 100 150 245
19 1 49 100 150 245
19 1 50 100 150 245
19 1 52 0 175 0
19 1 56 255 200 0
19 1 57 255 200 0
19 2 22 100 150 245
19 2 23 100 150 245
19 2 26 100 150 245
19 2 27 100 150 245
19 2 32 255 200 0
19 2 33 255 200 0
19 2 34 255 200 0
19 2 35 255 200 0
19 2 36 0 175 0
19 2 37 0 175 0
19 2 38 0 175 0
19 2 39 0 175 0
19 2 48 100 150 245
19 2 49 100 150 245
19 2 50 100 150 245
19 2 56 255 200 0
19 2 57 255 200 0
19 3 32 255 200 0
19 3 33 255 200 0
19 3 34 255 200 0
19 3 35 255 200 0
19 3 36 0 175 0
19 3 37 0 175 0
19 3 38 0 175 0
19 3 56 255 200 0
19 3 57 255 200 0
19 4 32 255 200 0
19 4 33 255 200 0
19 4 34 255 200 0
19 4 56 255 200 0
19 4 57 255 200 0
19 5 22 135 60 0
19 5 32 255 200 0
19 5 33 255 200 0
19 5 34 255 200 0
19 5 56 255 200 0
19 5 57 255 200 0
19 6 57 255 200 0
20 0 0 255 0 255
20 0 1 255 0 255
20 0 2 255 0 255
20 0 3 255 0 255
20 0 4 255 0 255
20 0 5 255 0 255
20 0 6 255 0 255
20 0 7 255 0 255
20 0 8 255 0 255
20 0 9 255 0 255
20 0 10 255 0 255
20 0 11 255 0 255
20 0 12 255 0 255
20 0 13 255 0 255
20 0 14 255 0 255
20 0 15 255 0 255
20 0 16 255 150 255
20 0 17 100 150 245
20 0 18 100 150 245
20 0 19 255 150 255
20 0 20 0 175 0
20 0 21 0 175 0
20 0 22 0 175 0
20 0 23 100 150 245
20 0 24 255 150 255
20 0 25 255 150 255
20 0 26 75 0 75
20 0 27 75 0 75
20 0 28 75 0 75
20 0 29 75 0 75
20 0 30 75 0 75
20 0 31 75 0 75
20 0 32 255 200 0
20 0 33 255 200 0
20 0 34 255 200 0
20 0 35 255 200 0
20 0 36 0 175 0
20 0 37 0 175 0
20 0 39 0 175 0
20 0 40 75 0 75
20 0 41 75 0 75
20 0 42 75 0 75
20 0 43 255 0 255
20 0 44 255 0 255
20 0 45 255 0 255
20 0 46 255 0 255
20 0 47 255 0 255
20 0 48 255 0 255
20 0 49 255 0 255
20 0 50 255 0 255
20 0 54 0 175 0
20 0 55 0 175 0
20 0 56 0 175 0
20 1 16 100 150 245
20 1 17 100 150 245
20 1 18 100 150 245
20 1 19 0 175 0
20 1 20 0 175 0
20 1 21 0 175 0
20 1 22 0 175 0
20 1 23 100 150 245
20 1 24 100 150 245
20 1 25 100 150 245
20 1 26 100 150 245
20 1 30 255 200 0
20 1 31 255 200 0
20 1 32 255 200 0
20 1 33 255 200 0
20 1 34 255 200 0
20 1 35 255 200 0
20 1 36 0 175 0
20 1 37 0 175 0
20 1 38 0 175 0
20 1 39 0 175 0
20 1 40 0 175 0
20 1 48 100 150 245
20 1 49 100 150 245
20 1 54 0 175 0
20 1 55 0 175 0
20 1 56 0 175 0
20 1 57 255 200 0
20 2 30 255 200 0
20 2 31 255 200 0
20 2 32 255 200 0
20 2 33 255 200 0
20 2 35 255 200 0
20 2 36 0 175 0
20 2 37 0 175 0
20 2 48 100 150 245
20 2 55 0 175 0
20 2 56 0 175 0
20 2 57 255 200 0
20 2 58 255 200 0
20 3 30 255 200 0
20 3 31 255 200 0
20 3 32 255 200 0
20 3 33 255 200 0
20 3 35 255 200 0
20 3 36 255 200 0
20 3 37 0 175 0
20 3 38 0 175 0
20 3 57 255 200 0
20 3 58 255 200 0
20 4 21 135 60 0
20 4 22 135 60 0
20 4 31 255 200 0
20 4 32 255 200 0
20 4 35 255 200 0
20 4 57 255 200 0
20 4 58 255 200 0
20 5 21 135 60 0
20 5 22 135 60 0
20 5 24 135 60 0
20 5 30 255 200 0
20 5 31 255 200 0
20 5 32 255 200 0
20 5 57 255 200 0
20 5 58 255 200 0
21 0 0 255 0 255
21 0 1 255 0 255
21 0 2 255 0 255
21 0 3 255 0 255
21 0 4 255 0 255
21 0 5 255 0 255
21 0 6 255 0 255
21 0 7 255 0 255
21 0 8 255 0 255
21 0 9 255 0 255
21 0 10 255 0 255
21 0 11 255 0 255
21 0 12 255 0 255
21 0 13 255 0 255
21 0 14 255 150 255
21 0 15 255 150 255
21 0 16 100 150 245
21 0 17 255 150 255
21 0 18 100 150 245
21 0 19 255 150 255
21 0 20 0 175 0
21 0 21 0 175 0
21 0 22 0 175 0
21 0 23 0 175 0
21 0 24 255 150 255
21 0 25 75 0 75
21 0 26 75 0 75
21 0 27 75 0 75
21 0 28 75 0 75
21 0 29 75 0 75
21 0 30 255 200 0
21 0 31 255 200 0
21 0 32 255 200 0
21 0 33 255 200 0
21 0 35 255 200 0
21 0 36 255 200 0
21 0 40 0 175 0
21 0 41 75 0 75
21 0 42 75 0 75
21 0 43 75 0 75
21 0 44 255 0 255
21 0 45 255 0 255
21 0 46 255 0 255
21 0 47 255 0 255
21 0 48 255 0 255
21 0 49 255 0 255
21 0 50 255 0 255
21 0 51 75 0 75
21 0 52 75 0 75
21 0 55 0 175 0
21 0 56 0 175 0
21 0 57 0 175 0
21 1 16 100 150 245
21 1 17 100 150 245
21 1 18 100 150 245
21 1 19 100 150 245
21 1 20 0 175 0
21 1 21 0 175 0
21 1 22 0 175 0
21 1 23 100 150 245
21 1 24 100 150 245
21 1 25 100 150 245
21 1 26 135 60 0
21 1 29 255 200 0
21 1 30 255 200 0
21 1 31 255 200 0
21 1 36 255 200 0
21 1 37 0 175 0
21 1 38 0 175 0
21 1 39 0 175 0
21 1 40 0 175 0
21 1 41 0 175 0
21 1 53 0 175 0
21 1 54 0 175 0
21 1 55 0 175 0
21 1 56 0 175 0
21 1 57 255 200 0
21 1 58 255 200 0
21 2 17 100 150 245
21 2 18 100 150 245
21 2 21 135 60 0
21 2 22 135 60 0
21 2 29 255 200 0
21 2 30 255 200 0
21 2 31 255 200 0
21 2 36 255 200 0
21 2 37 0 175 0
21 2 38 0 175 0
21 2 39 0 175 0
21 2 54 0 175 0
21 2 55 0 175 0
21 2 56 0 175 0
21 2 57 255 200 0
21 2 58 255 200 0
21 3 21 135 60 0
21 3 22 135 60 0
21 3 29 255 200 0
21 3 30 255 200 0
21 3 31 255 200 0
21 3 32 255 200 0
21 3 33 255 200 0
21 3 35 255 200 0
21 3 36 255 200 0
21 3 37 0 175 0
21 3 38 0 175 0
21 3 39 0 175 0
21 3 55 0 175 0
21 3 56 0 175 0
21 3 57 255 200 0
21 3 58 255 200 0
21 4 20 135 60 0
21 4 21 135 60 0
21 4 22 135 60 0
21 4 23 135 60 0
21 4 29 255 200 0
21 4 30 255 200 0
21 4 31 255 200 0
21 4 32 255 200 0
21 4 35 255 200 0
21 4 57 255 200 0
21 4 58 255 200 0
21 5 20 135 60 0
21 5 21 135 60 0
21 5 22 135 60 0
21 5 23 135 60 0
21 5 24 135 60 0
21 5 29 255 200 0
21 5 30 255 200 0
21 5 31 255 200 0
21 5 58 255 200 0
22 0 0 255 0 255
22 0 1 255 0 255
22 0 2 255 0 255
22 0 3 255 0 255
22 0 4 255 0 255
22 0 5 255 0 255
22 0 6 255 0 255
22 0 7 255 0 255
22 0 8 255 0 255
22 0 9 255 0 255
22 0 10 255 0 255
22 0 11 255 0 255
22 0 12 255 150 255
22 0 13 100 150 245
22 0 14 100 150 245
22 0 15 100 150 245
22 0 16 255 150 255
22 0 17 255 150 255
22 0 18 255 150 255
22 0 19 255 150 255
22 0 20 255 150 255
22 0 21 0 175 0
22 0 22 0 175 0
22 0 23 0 175 0
22 0 24 75 0 75
22 0 25 75 0 75
22 0 26 75 0 75
22 0 27 75 0 75
22 0 28 255 200 0
22 0 29 255 200 0
22 0 30 255 200 0
22 0 41 75 0 75
22 0 42 75 0 75
22 0 43 75 0 75
22 0 44 75 0 75
22 0 45 255 0 255
22 0 46 255 0 255
22 0 47 255 0 255
22 0 48 255 0 255
22 0 49 255 0 255
22 0 50 255 0 255
22 0 51 255 0 255
22 0 52 75 0 75
22 0 53 75 0 75
22 0 54 75 0 75
22 0 55 0 175 0
22 0 57 0 175 0
22 0 58 255 200 0
22 0 59 255 120 50
22 1 12 100 150 245
22 1 13 100 150 245
22 1 14 100 150 245
22 1 15 100 150 245
22 1 16 100 150 245
22 1 17 100 150 245
22 1 18 100 150 245
22 1 19 100 150 245
22 1 20 100 150 245
22 1 21 135 60 0
22 1 22 135 60 0
22 1 27 255 200 0
22 1 28 255 200 0
22 1 29 255 200 0
22 1 30 255 200 0
22 1 36 255 200 0
22 1 37 255 200 0
22 1 38 0 175 0
22 1 39 0 175 0
22 1 40 0 175 0
22 1 51 100 150 245
22 1 52 100 150 245
22 1 53 100 150 245
22 1 54 0 175 0
22 1 55 0 175 0
22 1 58 255 200 0
22 1 59 255 200 0
22 2 7 0 175 0
22 2 13 100 150 245
22 2 14 100 150 245
22 2 17 100 150 245
22 2 18 100 150 245
22 2 21 135 60 0
22 2 22 135 60 0
22 2 27 255 200 0
22 2 28 255 200 0
22 2 29 255 200 0
22 2 30 255 200 0
22 2 36 255 200 0
22 2 37 255 200 0
22 2 38 0 175 0
22 2 39 0 175 0
22 2 55 0 175 0
22 2 56 0 175 0
22 2 58 255 200 0
22 2 59 255 200 0
22 3 21 135 60 0
22 3 22 135 60 0
22 3 23 135 60 0
22 3 27 255 200 0
22 3 28 255 200 0
22 3 29 255 200 0
22 3 30 255 200 0
22 3 32 255 200 0
22 3 33 255 200 0
22 3 36 255 200 0
22 3 37 255 200 0
22 3 38 0 175 0
22 3 39 0 175 0
22 3 55 0 175 0
22 3 56 0 175 0
22 3 58 255 200 0
22 3 59 255 200 0
22 4 21 135 60 0
22 4 22 135 60 0
22 4 23 135 60 0
22 4 27 255 200 0
22 4 28 255 200 0
22 4 29 255 200 0
22 4 58 255 200 0
22 4 59 255 200 0
22 5 21 0 175 0
22 5 23 0 175 0
22 5 27 255 200 0
22 5 28 255 200 0
22 5 29 255 200 0
22 5 58 255 200 0
22 5 59 255 200 0
23 0 0 255 0 255
23 0 1 255 0 255
23 0 2 255 0 255
23 0 3 255 0 255
23 0 4 255 0 255
23 0 5 255 0 255
23 0 6 255 0 255
23 0 7 255 0 255
23 0 8 255 0 255
23 0 9 255 0 255
23 0 10 0 175 0
23 0 11 0 175 0
23 0 12 0 175 0
23 0 13 100 150 245
23 0 14 255 150 255
23 0 15 255 150 255
23 0 16 255 150 255
23 0 17 255 150 255
23 0 18 255 150 255
23 0 19 255 150 255
23 0 20 100 150 245
23 0 21 75 0 75
23 0 22 75 0 75
23 0 23 75 0 75
23 0 24 75 0 75
23 0 25 75 0 75
23 0 26 75 0 75
23 0 27 255 200 0
23 0 28 255 200 0
23 0 41 0 175 0
23 0 42 75 0 75
23 0 43 75 0 75
23 0 44 75 0 75
23 0 45 255 0 255
23 0 46 255 0 255
23 0 47 255 0 255
23 0 48 255 0 255
23 0 49 255 0 255
23 0 50 255 0 255
23 0 51 100 150 245
23 0 52 75 0 75
23 0 53 75 0 75
23 0 54 75 0 75
23 0 55 0 175 0
23 0 57 0 175 0
23 0 59 255 120 50
23 1 12 100 150 245
23 1 13 100 150 245
23 1 14 100 150 245
23 1 15 100 150 245
23 1 17 100 150 245
23 1 18 100 150 245
23 1 19 100 150 245
23 1 20 100 150 245
23 1 26 255 200 0
23 1 27 255 200 0
23 1 28 255 200 0
23 1 37 255 200 0
23 1 38 255 200 0
23 1 40 0 175 0
23 1 41 0 175 0
23 1 42 0 175 0
23 1 51 100 150 245
23 1 52 100 150 245
23 1 53 100 150 245
23 1 55 0 175 0
23 1 57 0 175 0
23 1 59 0 175 0
23 1 60 255 120 50
23 2 13 100 150 245
23 2 14 100 150 245
23 2 15 100 150 245
23 2 18 100 150 245
23 2 25 255 200 0
23 2 26 255 200 0
23 2 27 255 200 0
23 2 28 255 200 0
23 2 37 255 200 0
23 2 38 255 200 0
23 2 55 0 175 0
23 2 57 0 175 0
23 3 26 255 200 0
23 3 27 255 200 0
23 3 28 255 200 0
23 3 31 255 200 0
23 3 35 255 200 0
23 3 36 255 200 0
23 3 37 255 200 0
23 3 38 255 200 0
23 3 58 0 175 0
23 4 26 255 200 0
23 4 27 255 200 0
23 4 28 255 200 0
23 4 29 255 200 0
23 4 36 255 200 0
23 5 26 255 200 0
23 5 27 255 200 0
24 0 0 255 0 255
24 0 1 255 0 255
24 0 2 255 0 255
24 0 3 255 0 255
24 0 4 255 0 255
24 0 5 255 0 255
24 0 6 255 0 255
24 0 7 255 0 255
24 0 8 255 0 255
24 0 9 75 0 75
24 0 10 0 175 0
24 0 11 0 175 0
24 0 12 0 175 0
24 0 13 255 150 255
24 0 14 255 150 255
24 0 15 255 150 255
24 0 16 255 150 255
24 0 17 255 150 255
24 0 18 100 150 245
24 0 20 75 0 75
24 0 21 75 0 75
24 0 22 75 0 75
24 0 23 75 0 75
24 0 24 75 0 75
24 0 25 255 200 0
24 0 26 255 200 0
24 0 27 255 200 0
24 0 42 0 175 0
24 0 43 75 0 75
24 0 44 75 0 75
24 0 45 75 0 75
24 0 46 255 0 255
24 0 47 255 0 255
24 0 48 255 0 255
24 0 49 255 0 255
24 0 50 255 0 255
24 0 51 100 150 245
24 0 52 255 0 255
24 0 53 75 0 75
24 0 54 75 0 75
24 0 55 0 175 0
24 0 56 0 175 0
24 1 11 0 175 0
24 1 12 0 175 0
24 1 13 100 150 245
24 1 14 100 150 245
24 1 15 100 150 245
24 1 16 100 150 245
24 1 17 100 150 245
24 1 18 100 150 245
24 1 19 100 150 245
24 1 20 100 150 245
24 1 24 255 200 0
24 1 25 255 200 0
24 1 26 255 200 0
24 1 27 255 200 0
24 1 38 255 200 0
24 1 39 0 175 0
24 1 40 0 175 0
24 1 42 0 175 0
24 1 43 0 175 0
24 1 51 100 150 245
24 1 52 100 150 245
24 1 53 100 150 245
24 1 54 100 150 245
24 1 55 0 175 0
24 1 56 0 175 0
24 1 57 0 175 0
24 1 58 0 175 0
24 2 13 100 150 245
24 2 14 100 150 245
24 2 15 100 150 245
24 2 24 255 200 0
24 2 25 255 200 0
24 2 26 255 200 0
24 2 27 255 200 0
24 2 38 255 200 0
24 2 40 0 175 0
24 2 53 100 150 245
24 2 54 100 150 245
24 2 57 0 175 0
24 2 58 0 175 0
24 2 59 0 175 0
24 3 24 255 200 0
24 3 25 255 200 0
24 3 26 255 200 0
24 3 27 255 200 0
24 3 30 255 200 0
24 3 33 255 200 0
24 3 34 255 200 0
24 3 35 255 200 0
24 3 37 255 200 0
24 3 38 255 200 0
24 3 39 255 200 0
24 3 57 0 175 0
24 3 58 0 175 0
24 3 59 0 175 0
24 4 24 255 200 0
24 4 25 255 200 0
24 4 26 255 200 0
24 4 27 255 200 0
24 4 59 0 175 0
24 5 24 255 200 0
24 5 25 255 200 0
24 5 26 255 200 0
25 0 0 255 0 255
25 0 1 255 0 255
25 0 2 255 0 255
25 0 3 255 0 255
25 0 4 255 0 255
25 0 5 255 0 255
25 0 6 255 0 255
25 0 7 75 0 75
25 0 8 75 0 75
25 0 9 75 0 75
25 0 10 0 175 0
25 0 11 0 175 0
25 0 12 0 175 0
25 0 13 0 175 0
25 0 14 255 150 255
25 0 15 255 150 255
25 0 16 100 150 245
25 0 17 255 150 255
25 0 18 75 0 75
25 0 19 75 0 75
25 0 20 75 0 75
25 0 21 75 0 75
25 0 22 75 0 75
25 0 23 255 200 0
25 0 24 255 200 0
25 0 25 255 200 0
25 0 26 255 200 0
25 0 42 0 175 0
25 0 43 75 0 75
25 0 44 75 0 75
25 0 45 75 0 75
25 0 46 255 0 255
25 0 47 255 0 255
25 0 48 255 0 255
25 0 49 255 0 255
25 0 50 255 0 255
25 0 51 255 0 255
25 0 52 255 0 255
25 0 53 255 0 255
25 1 11 0 175 0
25 1 12 0 175 0
25 1 13 0 175 0
25 1 14 100 150 245
25 1 15 100 150 245
25 1 16 100 150 245
25 1 17 100 150 245
25 1 18 100 150 245
25 1 22 255 200 0
25 1 23 255 200 0
25 1 24 255 200 0
25 1 25 255 200 0
25 1 38 255 200 0
25 1 39 0 175 0
25 1 40 0 175 0
25 1 41 0 175 0
25 1 42 0 175 0
25 1 43 0 175 0
25 1 51 100 150 245
25 1 52 100 150 245
25 1 53 100 150 245
25 1 54 100 150 245
25 1 56 0 175 0
25 1 57 0 175 0
25 1 58 0 175 0
25 1 59 0 175 0
25 1 61 255 120 50
25 2 14 100 150 245
25 2 22 255 200 0
25 2 23 255 200 0
25 2 24 255 200 0
25 2 25 255 200 0
25 2 38 255 200 0
25 2 39 255 200 0
25 2 40 0 175 0
25 2 41 0 175 0
25 2 52 100 150 245
25 2 53 100 150 245
25 2 54 100 150 245
25 2 56 0 175 0
25 2 57 0 175 0
25 2 58 0 175 0
25 2 59 0 175 0
25 2 60 255 120 50
25 2 61 255 120 50
25 3 22 255 200 0
25 3 23 255 200 0
25 3 24 255 200 0
25 3 26 255 200 0
25 3 30 255 200 0
25 3 31 255 200 0
25 3 32 255 200 0
25 3 33 255 200 0
25 3 34 255 200 0
25 3 38 255 200 0
25 3 39 255 200 0
25 3 56 0 175 0
25 3 57 0 175 0
25 3 58 0 175 0
25 3 59 0 175 0
25 3 60 0 175 0
25 4 23 255 200 0
25 4 24 255 200 0
25 4 57 0 175 0
25 4 58 0 175 0
25 4 59 0 175 0
25 5 23 255 200 0
25 5 24 255 200 0
26 0 0 255 0 255
26 0 1 255 0 255
26 0 2 255 0 255
26 0 3 255 0 255
26 0 4 255 0 255
26 0 5 255 0 255
26 0 6 75 0 75
26 0 7 75 0 75
26 0 8 75 0 75
26 0 9 75 0 75
26 0 10 75 0 75
26 0 11 0 175 0
26 0 12 0 175 0
26 0 13 0 175 0
26 0 14 100 150 245
26 0 15 100 150 245
26 0 17 75 0 75
26 0 18 75 0 75
26 0 19 75 0 75
26 0 20 75 0 75
26 0 21 75 0 75
26 0 22 255 200 0
26 0 23 255 200 0
26 0 43 0 175 0
26 0 44 0 175 0
26 0 45 75 0 75
26 0 46 75 0 75
26 0 47 255 0 255
26 0 48 255 0 255
26 0 49 255 0 255
26 0 50 255 0 255
26 0 51 255 0 255
26 0 52 255 0 255
26 0 53 100 150 245
26 0 54 255 0 255
26 1 11 0 175 0
26 1 12 0 175 0
26 1 13 0 175 0
26 1 14 100 150 245
26 1 15 100 150 245
26 1 21 255 200 0
26 1 22 255 200 0
26 1 23 255 200 0
26 1 39 255 200 0
26 1 40 0 175 0
26 1 41 0 175 0
26 1 43 0 175 0
26 1 44 0 175 0
26 1 52 100 150 245
26 1 53 100 150 245
26 1 54 100 150 245
26 1 56 0 175 0
26 1 57 0 175 0
26 1 58 0 175 0
26 1 59 0 175 0
26 1 61 0 175 0
26 1 62 0 175 0
26 2 13 135 60 0
26 2 21 255 200 0
26 2 22 255 200 0
26 2 23 255 200 0
26 2 39 255 200 0
26 2 52 100 150 245
26 2 53 100 150 245
26 2 54 100 150 245
26 2 56 0 175 0
26 2 57 0 175 0
26 2 58 0 175 0
26 2 59 0 175 0
26 3 12 135 60 0
26 3 13 135 60 0
26 3 21 255 200 0
26 3 22 255 200 0
26 3 23 255 200 0
26 3 25 255 200 0
26 3 29 255 200 0
26 3 30 255 200 0
26 3 31 255 200 0
26 3 39 255 200 0
26 3 56 0 175 0
26 3 57 0 175 0
26 3 58 0 175 0
26 3 59 0 175 0
26 4 12 135 60 0
26 4 13 135 60 0
26 4 14 135 60 0
26 4 21 255 200 0
26 4 22 255 200 0
26 4 23 255 200 0
26 4 30 255 200 0
26 4 57 0 175 0
26 4 58 0 175 0
26 4 59 0 175 0
26 5 21 255 200 0
26 5 22 255 200 0
26 5 23 255 200 0
27 0 0 255 0 255
27 0 1 255 0 255
27 0 2 255 0 255
27 0 3 255 0 255
27 0 4 75 0 75
27 0 5 75 0 75
27 0 6 75 0 75
27 0 7 75 0 75
27 0 8 75 0 75
27 0 9 75 0 75
27 0 10 75 0 75
27 0 11 0 175 0
27 0 12 0 175 0
27 0 13 0 175 0
27 0 14 0 175 0
27 0 15 75 0 75
27 0 16 75 0 75
27 0 17 75 0 75
27 0 18 75 0 75
27 0 19 75 0 75
27 0 20 255 200 0
27 0 21 255 200 0
27 0 22 255 200 0
27 0 44 0 175 0
27 0 45 75 0 75
27 0 46 75 0 75
27 0 47 75 0 75
27 0 48 255 0 255
27 0 49 255 0 255
27 0 50 255 0 255
27 0 51 255 0 255
27 0 52 255 0 255
27 0 53 100 150 245
27 0 54 255 0 255
27 0 55 255 0 255
27 1 12 135 60 0
27 1 13 135 60 0
27 1 14 0 175 0
27 1 15 100 150 245
27 1 19 255 200 0
27 1 20 255 200 0
27 1 21 255 200 0
27 1 22 255 200 0
27 1 39 255 200 0
27 1 40 0 175 0
27 1 41 0 175 0
27 1 44 0 175 0
27 1 45 0 175 0
27 1 53 100 150 245
27 1 54 100 150 245
27 1 57 0 175 0
27 1 58 0 175 0
27 1 59 0 175 0
27 1 61 0 175 0
27 2 12 135 60 0
27 2 13 135 60 0
27 2 19 255 200 0
27 2 20 255 200 0
27 2 21 255 200 0
27 2 39 255 200 0
27 2 40 255 200 0
27 2 53 100 150 245
27 2 57 0 175 0
27 2 58 0 175 0
27 2 59 0 175 0
27 3 11 135 60 0
27 3 12 135 60 0
27 3 13 135 60 0
27 3 19 255 200 0
27 3 20 255 200 0
27 3 21 255 200 0
27 3 22 255 200 0
27 3 25 255 200 0
27 3 26 255 200 0
27 3 27 255 200 0
27 3 31 255 200 0
27 3 32 255 200 0
27 3 39 255 200 0
27 3 40 255 200 0
27 3 56 0 175 0
27 3 57 0 175 0
27 3 58 0 175 0
27 3 59 0 175 0
27 4 11 135 60 0
27 4 12 135 60 0
27 4 19 255 200 0
27 4 20 255 200 0
27 4 21 255 200 0
27 4 22 255 200 0
27 4 40 255 200 0
27 4 56 0 175 0
27 4 57 0 175 0
27 4 58 0 175 0
27 4 59 0 175 0
27 5 20 255 200 0
27 5 21 255 200 0
28 0 0 255 0 255
28 0 1 255 0 255
28 0 2 75 0 75
28 0 3 75 0 75
28 0 4 75 0 75
28 0 5 75 0 75
28 0 6 75 0 75
28 0 7 75 0 75
28 0 8 75 0 75
28 0 9 75 0 75
28 0 10 75 0 75
28 0 11 75 0 75
28 0 12 0 175 0
28 0 13 75 0 75
28 0 14 75 0 75
28 0 15 75 0 75
28 0 16 75 0 75
28 0 17 75 0 75
28 0 18 75 0 75
28 0 19 255 200 0
28 0 20 255 200 0
28 0 40 0 175 0
28 0 41 0 175 0
28 0 44 75 0 75
28 0 45 75 0 75
28 0 46 75 0 75
28 0 47 75 0 75
28 0 48 255 0 255
28 0 49 255 0 255
28 0 50 255 0 255
28 0 51 255 0 255
28 0 52 255 0 255
28 0 53 255 0 255
28 0 54 255 0 255
28 0 55 100 150 245
28 1 12 0 175 0
28 1 13 135 60 0
28 1 18 255 200 0
28 1 19 255 200 0
28 1 20 255 200 0
28 1 40 255 200 0
28 1 41 0 175 0
28 1 42 0 175 0
28 1 43 0 175 0
28 1 44 0 175 0
28 1 45 0 175 0
28 1 55 100 150 245
28 1 58 0 175 0
28 2 12 135 60 0
28 2 13 135 60 0
28 2 17 255 200 0
28 2 18 255 200 0
28 2 19 255 200 0
28 2 20 255 200 0
28 2 40 255 200 0
28 2 41 255 200 0
28 2 42 0 175 0
28 2 58 0 175 0
28 2 59 0 175 0
28 3 12 135 60 0
28 3 13 135 60 0
28 3 18 255 200 0
28 3 19 255 200 0
28 3 20 255 200 0
28 3 21 255 200 0
28 3 25 255 200 0
28 3 26 255 200 0
28 3 31 255 200 0
28 3 32 255 200 0
28 3 33 255 200 0
28 3 39 255 200 0
28 3 40 255 200 0
28 3 41 255 200 0
28 3 58 0 175 0
28 3 59 0 175 0
28 4 12 135 60 0
28 4 18 255 200 0
28 4 19 255 200 0
28 4 26 255 200 0
28 4 31 255 200 0
28 4 40 255 200 0
28 4 41 255 200 0
28 4 58 0 175 0
28 4 59 0 175 0
28 5 18 255 200 0
28 5 19 255 200 0
29 0 0 255 0 255
29 0 1 75 0 75
29 0 2 75 0 75
29 0 3 75 0 75
29 0 4 75 0 75
29 0 5 75 0 75
29 0 6 75 0 75
29 0 7 75 0 75
29 0 8 75 0 75
29 0 9 75 0 75
29 0 10 75 0 75
29 0 11 75 0 75
29 0 12 75 0 75
29 0 13 75 0 75
29 0 14 75 0 75
29 0 15 75 0 75
29 0 16 75 0 75
29 0 17 255 200 0
29 0 18 255 200 0
29 0 41 0 175 0
29 0 42 75 0 75
29 0 45 0 175 0
29 0 46 75 0 75
29 0 47 75 0 75
29 0 48 75 0 75
29 0 49 255 0 255
29 0 50 255 0 255
29 0 51 255 0 255
29 0 52 255 0 255
29 0 53 255 0 255
29 0 54 255 0 255
29 0 55 100 150 245
29 0 56 75 0 75
29 1 16 255 200 0
29 1 17 255 200 0
29 1 18 255 200 0
29 1 41 0 175 0
29 1 42 0 175 0
29 1 43 0 175 0
29 1 44 0 175 0
29 1 45 0 175 0
29 1 46 0 175 0
29 1 54 100 150 245
29 1 55 100 150 245
29 1 56 100 150 245
29 1 57 100 150 245
29 2 16 255 200 0
29 2 17 255 200 0
29 2 18 255 200 0
29 2 41 255 200 0
29 2 42 0 175 0
29 3 16 255 200 0
29 3 17 255 200 0
29 3 18 255 200 0
29 3 19 255 200 0
29 3 21 255 200 0
29 3 26 255 200 0
29 3 27 255 200 0
29 3 28 255 200 0
29 3 29 255 200 0
29 3 30 255 200 0
29 3 31 255 200 0
29 3 33 255 200 0
29 3 40 255 200 0
29 3 41 255 200 0
29 4 16 255 200 0
29 4 17 255 200 0
29 4 18 255 200 0
29 4 19 255 200 0
29 4 26 255 200 0
29 4 27 255 200 0
29 4 30 255 200 0
29 4 31 255 200 0
29 4 41 255 200 0
30 0 0 255 150 255
30 0 1 75 0 75
30 0 2 75 0 75
30 0 3 75 0 75
30 0 4 75 0 75
30 0 5 75 0 75
30 0 6 75 0 75
30 0 7 75 0 75
30 0 8 75 0 75
30 0 9 75 0 75
30 0 10 75 0 75
30 0 11 75 0 75
30 0 12 75 0 75
30 0 13 75 0 75
30 0 14 75 0 75
30 0 15 255 200 0
30 0 16 255 200 0
30 0 42 0 175 0
30 0 46 0 175 0
30 0 47 75 0 75
30 0 48 75 0 75
30 0 49 75 0 75
30 0 50 255 0 255
30 0 51 255 0 255
30 0 52 255 0 255
30 0 53 255 0 255
30 0 54 255 0 255
30 0 55 100 150 245
30 0 56 255 0 255
30 0 57 75 0 75
30 1 0 100 150 245
30 1 14 255 200 0
30 1 15 255 200 0
30 1 16 255 200 0
30 1 17 255 200 0
30 1 42 0 175 0
30 1 43 0 175 0
30 1 44 0 175 0
30 1 45 0 175 0
30 1 46 0 175 0
30 1 54 100 150 245
30 1 55 100 150 245
30 1 56 100 150 245
30 1 57 100 150 245
30 2 14 255 200 0
30 2 15 255 200 0
30 2 16 255 200 0
30 2 17 255 200 0
30 2 44 0 175 0
30 2 45 0 175 0
30 3 14 255 200 0
30 3 15 255 200 0
30 3 16 255 200 0
30 3 17 255 200 0
30 3 21 255 200 0
30 3 22 255 200 0
30 3 27 255 200 0
30 3 28 255 200 0
30 3 33 255 200 0
30 3 34 255 200 0
30 3 35 255 200 0
30 4 14 255 200 0
30 4 15 255 200 0
30 4 16 255 200 0
30 4 27 255 200 0
30 4 33 255 200 0
30 4 34 255 200 0
30 4 35 255 200 0
31 0 0 100 150 245
31 0 1 255 150 255
31 0 2 75 0 75
31 0 3 75 0 75
31 0 4 75 0 75
31 0 5 75 0 75
31 0 6 75 0 75
31 0 7 75 0 75
31 0 8 75 0 75
31 0 9 75 0 75
31 0 10 75 0 75
31 0 11 75 0 75
31 0 12 75 0 75
31 0 13 75 0 75
31 0 14 255 200 0
31 0 15 255 200 0
31 0 42 0 175 0
31 0 43 0 175 0
31 0 46 0 175 0
31 0 47 75 0 75
31 0 48 75 0 75
31 0 49 75 0 75
31 0 50 255 0 255
31 0 51 255 0 255
31 0 52 255 0 255
31 0 53 255 0 255
31 0 54 255 0 255
31 0 55 255 0 255
31 0 56 255 0 255
31 0 57 255 0 255
31 1 0 100 150 245
31 1 1 100 150 245
31 1 14 255 200 0
31 1 15 255 200 0
31 1 20 255 200 0
31 1 42 0 175 0
31 1 43 0 175 0
31 1 44 0 175 0
31 1 46 0 175 0
31 1 47 0 175 0
31 1 55 100 150 245
31 1 57 100 150 245
31 2 0 100 150 245
31 2 14 255 200 0
31 2 15 255 200 0
31 2 44 0 175 0
31 2 45 0 175 0
31 2 56 100 150 245
31 2 57 100 150 245
31 3 14 255 200 0
31 3 15 255 200 0
31 3 22 255 200 0
31 3 23 255 200 0
31 3 26 255 200 0
31 3 27 255 200 0
31 3 33 255 200 0
31 3 34 255 200 0
31 4 14 255 200 0
31 4 15 255 200 0
31 4 26 255 200 0
31 4 27 255 200 0
31 4 33 255 200 0
31 4 34 255 200 0
32 0 0 255 150 255
32 0 1 100 150 245
32 0 2 75 0 75
32 0 3 75 0 75
32 0 4 75 0 75
32 0 5 75 0 75
32 0 6 75 0 75
32 0 7 75 0 75
32 0 8 75 0 75
32 0 9 75 0 75
32 0 10 75 0 75
32 0 11 75 0 75
32 0 12 75 0 75
32 0 13 75 0 75
32 0 14 255 200 0
32 0 15 255 200 0
32 0 43 0 175 0
32 0 47 0 175 0
32 0 48 75 0 75
32 0 49 75 0 75
32 0 50 75 0 75
32 0 51 255 0 255
32 0 52 255 0 255
32 0 53 255 0 255
32 0 54 255 0 255
32 0 55 255 0 255
32 0 56 255 0 255
32 0 57 255 0 255
32 0 58 75 0 75
32 1 0 100 150 245
32 1 1 100 150 245
32 1 14 255 200 0
32 1 15 255 200 0
32 1 43 0 175 0
32 1 47 0 175 0
32 1 48 0 175 0
32 1 55 255 30 30
32 1 56 255 30 30
32 1 58 100 150 245
32 2 0 100 150 245
32 2 14 255 200 0
32 2 15 255 200 0
32 2 44 0 175 0
32 2 45 0 175 0
32 2 56 100 150 245
32 2 57 100 150 245
32 3 14 255 200 0
32 3 15 255 200 0
32 3 20 255 200 0
32 3 21 255 200 0
32 3 23 255 200 0
32 3 24 255 200 0
32 3 25 255 200 0
32 3 26 255 200 0
32 4 14 255 200 0
32 4 15 255 200 0
32 4 23 255 200 0
32 4 24 255 200 0
32 4 25 255 200 0
32 4 26 255 200 0
33 0 0 255 150 255
33 0 1 100 150 245
33 0 2 255 150 255
33 0 3 75 0 75
33 0 4 75 0 75
33 0 5 75 0 75
33 0 6 75 0 75
33 0 7 75 0 75
33 0 8 75 0 75
33 0 9 75 0 75
33 0 10 75 0 75
33 0 11 75 0 75
33 0 12 75 0 75
33 0 13 75 0 75
33 0 14 75 0 75
33 0 15 255 200 0
33 0 47 0 175 0
33 0 48 0 175 0
33 0 49 75 0 75
33 0 50 75 0 75
33 0 51 100 150 245
33 0 52 255 0 255
33 0 53 255 0 255
33 0 54 255 0 255
33 0 55 255 0 255
33 0 56 255 0 255
33 0 57 255 0 255
33 0 58 255 0 255
33 1 0 100 150 245
33 1 1 100 150 245
33 1 2 100 150 245
33 1 14 255 200 0
33 1 15 255 200 0
33 1 16 255 200 0
33 1 43 0 175 0
33 1 44 0 175 0
33 1 45 0 175 0
33 1 47 0 175 0
33 1 48 0 175 0
33 1 50 100 150 245
33 1 51 100 150 245
33 1 52 100 150 245
33 1 55 255 30 30
33 1 56 255 30 30
33 1 57 100 150 245
33 2 0 100 150 245
33 2 15 255 200 0
33 2 44 0 175 0
33 2 45 0 175 0
33 2 46 0 175 0
33 2 56 255 30 30
33 2 57 255 30 30
33 2 58 255 30 30
33 3 14 255 200 0
33 3 15 255 200 0
33 3 16 255 200 0
33 3 20 255 200 0
33 3 23 255 200 0
33 3 24 255 200 0
33 4 15 255 200 0
33 4 16 255 200 0
33 4 23 255 200 0
33 4 24 255 200 0
34 0 0 255 150 255
34 0 1 255 150 255
34 0 2 100 150 245
34 0 3 75 0 75
34 0 4 75 0 75
34 0 5 75 0 75
34 0 6 75 0 75
34 0 7 75 0 75
34 0 8 75 0 75
34 0 9 75 0 75
34 0 10 75 0 75
34 0 11 75 0 75
34 0 12 75 0 75
34 0 13 75 0 75
34 0 14 75 0 75
34 0 15 75 0 75
34 0 16 255 200 0
34 0 17 255 200 0
34 0 18 255 200 0
34 0 19 255 200 0
34 0 48 0 175 0
34 0 49 75 0 75
34 0 50 75 0 75
34 0 51 75 0 75
34 0 52 255 0 255
34 0 53 255 0 255
34 0 54 255 0 255
34 0 55 255 0 255
34 0 56 255 0 255
34 0 57 255 30 30
34 0 58 255 0 255
34 1 0 100 150 245
34 1 1 100 150 245
34 1 2 100 150 245
34 1 8 255 120 50
34 1 15 255 200 0
34 1 16 255 200 0
34 1 17 255 200 0
34 1 18 255 200 0
34 1 43 0 175 0
34 1 44 0 175 0
34 1 45 0 175 0
34 1 48 0 175 0
34 1 49 0 175 0
34 1 50 100 150 245
34 1 51 100 150 245
34 1 52 100 150 245
34 1 53 100 150 245
34 1 56 255 30 30
34 1 57 255 30 30
34 2 15 255 200 0
34 2 16 255 200 0
34 2 45 0 175 0
34 2 46 0 175 0
34 2 56 255 30 30
34 2 57 255 30 30
34 3 15 255 200 0
34 3 16 255 200 0
34 3 18 255 200 0
34 4 15 255 200 0
34 4 16 255 200 0
34 5 16 255 200 0
35 0 0 100 150 245
35 0 1 255 150 255
35 0 2 75 0 75
35 0 3 75 0 75
35 0 4 75 0 75
35 0 5 75 0 75
35 0 6 75 0 75
35 0 7 75 0 75
35 0 8 255 120 50
35 0 9 255 120 50
35 0 10 75 0 75
35 0 11 75 0 75
35 0 12 75 0 75
35 0 13 75 0 75
35 0 14 75 0 75
35 0 15 75 0 75
35 0 16 255 200 0
35 0 49 0 175 0
35 0 50 100 150 245
35 0 51 75 0 75
35 0 52 75 0 75
35 0 53 255 0 255
35 0 54 255 0 255
35 0 55 255 0 255
35 0 56 255 0 255
35 0 57 255 0 255
35 0 58 255 0 255
35 1 0 100 150 245
35 1 7 255 120 50
35 1 8 255 120 50
35 1 9 255 120 50
35 1 16 255 200 0
35 1 17 255 200 0
35 1 45 0 175 0
35 1 48 0 175 0
35 1 49 0 175 0
35 1 50 100 150 245
35 1 51 100 150 245
35 1 53 100 150 245
35 2 16 255 200 0
35 2 17 255 200 0
35 2 46 0 175 0
35 2 52 100 150 245
35 2 53 100 150 245
35 3 16 255 200 0
35 3 17 255 200 0
35 4 16 255 200 0
35 4 17 255 200 0
35 5 16 255 200 0
35 5 17 255 200 0
36 0 0 0 175 0
36 0 1 75 0 75
36 0 2 75 0 75
36 0 3 75 0 75
36 0 4 75 0 75
36 0 5 75 0 75
36 0 6 75 0 75
36 0 7 75 0 75
36 0 8 255 120 50
36 0 9 255 120 50
36 0 10 75 0 75
36 0 11 75 0 75
36 0 12 75 0 75
36 0 13 75 0 75
36 0 14 75 0 75
36 0 15 75 0 75
36 0 16 255 200 0
36 0 17 255 200 0
36 0 49 0 175 0
36 0 50 0 175 0
36 0 51 75 0 75
36 0 52 75 0 75
36 0 53 75 0 75
36 0 54 255 0 255
36 0 55 255 0 255
36 0 56 255 0 255
36 0 57 255 0 255
36 0 58 255 0 255
36 0 60 75 0 75
36 0 61 75 0 75
36 1 0 0 175 0
36 1 8 255 120 50
36 1 9 255 120 50
36 1 16 255 200 0
36 1 17 255 200 0
36 1 45 0 175 0
36 1 46 0 175 0
36 1 49 0 175 0
36 1 50 0 175 0
36 1 51 100 150 245
36 1 52 100 150 245
36 1 53 100 150 245
36 1 54 100 150 245
36 2 16 255 200 0
36 2 17 255 200 0
36 2 18 255 200 0
36 2 45 0 175 0
36 2 46 0 175 0
36 2 47 0 175 0
36 2 49 255 240 150
36 2 50 255 240 150
36 2 51 100 150 245
36 2 52 100 150 245
36 2 53 100 150 245
36 3 15 255 200 0
36 3 16 255 200 0
36 3 17 255 200 0
36 3 46 0 175 0
36 3 47 0 175 0
36 3 49 255 240 150
36 3 50 255 240 150
36 4 16 255 200 0
36 4 17 255 200 0
36 4 25 255 200 0
36 4 49 255 240 150
36 4 50 255 240 150
36 5 17 255 200 0
37 0 0 75 0 75
37 0 1 75 0 75
37 0 2 75 0 75
37 0 3 75 0 75
37 0 4 255 200 0
37 0 5 75 0 75
37 0 6 75 0 75
37 0 7 75 0 75
37 0 8 75 0 75
37 0 9 255 120 50
37 0 10 75 0 75
37 0 11 75 0 75
37 0 12 75 0 75
37 0 13 75 0 75
37 0 14 75 0 75
37 0 15 75 0 75
37 0 16 255 200 0
37 0 17 255 200 0
37 0 18 255 200 0
37 0 50 0 175 0
37 0 51 75 0 75
37 0 52 75 0 75
37 0 53 75 0 75
37 0 54 255 0 255
37 0 55 255 0 255
37 0 56 255 0 255
37 0 57 255 0 255
37 0 58 255 0 255
37 0 59 255 0 255
37 0 60 255 0 255
37 0 61 75 0 75
37 0 62 75 0 75
37 1 3 255 200 0
37 1 4 255 200 0
37 1 5 255 200 0
37 1 9 255 120 50
37 1 17 255 200 0
37 1 18 255 200 0
37 1 45 0 175 0
37 1 46 0 175 0
37 1 47 0 175 0
37 1 50 0 175 0
37 1 51 0 175 0
37 1 52 100 150 245
37 1 53 100 150 245
37 2 3 255 200 0
37 2 4 255 200 0
37 2 5 255 200 0
37 2 17 255 200 0
37 2 18 255 200 0
37 2 46 0 175 0
37 2 47 0 175 0
37 2 48 0 175 0
37 2 52 100 150 245
37 2 53 100 150 245
37 3 3 255 200 0
37 3 4 255 200 0
37 3 5 255 200 0
37 3 15 255 200 0
37 3 16 255 200 0
37 3 17 255 200 0
37 3 18 255 200 0
37 3 23 255 200 0
37 3 45 0 175 0
37 3 46 0 175 0
37 3 47 0 175 0
37 3 48 0 175 0
37 4 3 255 200 0
37 4 4 255 200 0
37 4 5 255 200 0
37 4 17 255 200 0
37 4 18 255 200 0
37 4 23 255 200 0
37 4 24 255 200 0
37 4 46 0 175 0
37 4 47 0 175 0
37 5 17 255 200 0
37 5 18 255 200 0
38 0 0 75 0 75
38 0 1 75 0 75
38 0 2 255 200 0
38 0 3 255 200 0
38 0 4 255 200 0
38 0 5 255 200 0
38 0 6 75 0 75
38 0 7 75 0 75
38 0 8 75 0 75
38 0 9 75 0 75
38 0 10 255 120 50
38 0 11 75 0 75
38 0 12 75 0 75
38 0 13 75 0 75
38 0 14 75 0 75
38 0 15 75 0 75
38 0 16 75 0 75
38 0 17 255 200 0
38 0 18 255 200 0
38 0 50 0 175 0
38 0 51 75 0 75
38 0 52 75 0 75
38 0 53 75 0 75
38 0 54 75 0 75
38 0 56 255 0 255
38 0 57 255 0 255
38 0 58 255 0 255
38 0 59 255 0 255
38 0 60 255 0 255
38 0 61 255 0 255
38 1 1 255 200 0
38 1 2 255 200 0
38 1 3 255 200 0
38 1 4 255 200 0
38 1 5 255 200 0
38 1 6 255 200 0
38 1 9 255 120 50
38 1 17 255 200 0
38 1 18 255 200 0
38 1 47 0 175 0
38 1 49 0 175 0
38 1 50 0 175 0
38 1 51 0 175 0
38 2 1 255 200 0
38 2 2 255 200 0
38 2 3 255 200 0
38 2 5 255 200 0
38 2 6 255 200 0
38 2 17 255 200 0
38 2 18 255 200 0
38 2 46 0 175 0
38 2 47 0 175 0
38 2 48 0 175 0
38 2 49 0 175 0
38 2 50 0 175 0
38 3 1 255 200 0
38 3 2 255 200 0
38 3 3 255 200 0
38 3 5 255 200 0
38 3 6 255 200 0
38 3 16 255 200 0
38 3 17 255 200 0
38 3 18 255 200 0
38 3 19 255 200 0
38 3 46 0 175 0
38 3 47 0 175 0
38 3 48 0 175 0
38 3 49 0 175 0
38 4 1 255 200 0
38 4 2 255 200 0
38 4 3 255 200 0
38 4 5 255 200 0
38 4 18 255 200 0
38 4 46 0 175 0
38 4 48 0 175 0
38 5 18 255 200 0
39 0 0 75 0 75
39 0 1 255 200 0
39 0 2 255 200 0
39 0 3 255 200 0
39 0 5 255 200 0
39 0 6 255 200 0
39 0 7 75 0 75
39 0 8 75 0 75
39 0 9 75 0 75
39 0 10 255 120 50
39 0 11 255 120 50
39 0 12 75 0 75
39 0 13 75 0 75
39 0 14 75 0 75
39 0 15 75 0 75
39 0 18 255 200 0
39 0 19 255 200 0
39 0 51 75 0 75
39 0 52 75 0 75
39 0 53 75 0 75
39 0 56 255 0 255
39 0 57 255 0 255
39 0 58 255 0 255
39 0 59 255 0 255
39 0 60 255 0 255
39 0 61 255 0 255
39 0 62 75 0 75
39 0 63 75 0 75
39 1 0 255 200 0
39 1 1 255 200 0
39 1 2 255 200 0
39 1 5 255 200 0
39 1 6 255 200 0
39 1 10 255 120 50
39 1 18 255 200 0
39 1 19 255 200 0
39 1 20 255 200 0
39 1 45 0 175 0
39 1 46 0 175 0
39 1 48 0 175 0
39 1 49 0 175 0
39 2 0 255 200 0
39 2 1 255 200 0
39 2 2 255 200 0
39 2 3 255 200 0
39 2 5 255 200 0
39 2 6 255 200 0
39 2 18 255 200 0
39 2 19 255 200 0
39 2 45 0 175 0
39 2 46 0 175 0
39 2 47 0 175 0
39 2 49 0 175 0
39 3 0 255 200 0
39 3 1 255 200 0
39 3 2 255 200 0
39 3 3 255 200 0
39 3 5 255 200 0
39 3 6 255 200 0
39 3 17 255 200 0
39 3 18 255 200 0
39 3 19 255 200 0
39 3 45 0 175 0
39 3 47 0 175 0
39 3 48 0 175 0
39 4 0 255 200 0
39 4 1 255 200 0
39 4 2 255 200 0
39 4 3 255 200 0
39 4 5 255 200 0
39 4 6 255 200 0
39 4 18 255 200 0
39 4 19 255 200 0
39 4 48 0 175 0
39 5 18 255 200 0
39 5 19 255 200 0
40 0 0 255 200 0
40 0 1 255 200 0
40 0 6 255 200 0
40 0 7 75 0 75
40 0 8 75 0 75
40 0 9 75 0 75
40 0 10 255 120 50
40 0 11 255 120 50
40 0 12 255 120 50
40 0 19 255 200 0
40 0 20 255 200 0
40 0 21 255 200 0
40 0 52 75 0 75
40 0 53 75 0 75
40 0 57 255 0 255
40 0 58 255 0 255
40 0 59 255 0 255
40 0 60 255 0 255
40 0 61 255 0 255
40 0 62 255 0 255
40 0 63 75 0 75
40 1 0 255 200 0
40 1 1 255 200 0
40 1 6 255 200 0
40 1 7 255 200 0
40 1 10 255 120 50
40 1 11 255 120 50
40 1 19 255 200 0
40 1 20 255 200 0
40 1 23 255 200 0
40 1 48 0 175 0
40 2 0 255 200 0
40 2 1 255 200 0
40 2 6 255 200 0
40 2 7 255 200 0
40 2 19 255 200 0
40 2 20 255 200 0
40 2 45 0 175 0
40 2 46 0 175 0
40 2 47 0 175 0
40 3 0 255 200 0
40 3 1 255 200 0
40 3 6 255 200 0
40 3 7 255 200 0
40 3 8 255 200 0
40 3 9 255 200 0
40 3 19 255 200 0
40 3 20 255 200 0
40 3 45 0 175 0
40 3 46 0 175 0
40 3 47 0 175 0
40 3 48 0 175 0
40 4 0 255 200 0
40 4 1 255 200 0
40 4 6 255 200 0
40 4 7 255 200 0
40 4 19 255 200 0
40 4 20 255 200 0
40 5 19 255 200 0
40 5 20 255 200 0
41 0 7 255 200 0
41 0 8 75 0 75
41 0 9 75 0 75
41 0 10 75 0 75
41 0 11 255 120 50
41 0 12 255 120 50
41 0 20 255 200 0
41 0 52 75 0 75
41 0 53 75 0 75
41 0 54 75 0 75
41 0 57 255 0 255
41 0 58 255 0 255
41 0 59 255 0 255
41 0 60 255 0 255
41 0 61 255 0 255
41 0 62 255 0 255
41 0 63 255 0 255
41 1 6 255 200 0
41 1 7 255 200 0
41 1 8 255 200 0
41 1 11 255 120 50
41 1 12 255 120 50
41 1 20 255 200 0
41 2 6 255 200 0
41 2 7 255 200 0
41 2 8 255 200 0
41 2 19 255 200 0
41 2 20 255 200 0
41 2 46 0 175 0
41 2 47 0 175 0
41 3 6 255 200 0
41 3 7 255 200 0
41 3 8 255 200 0
41 3 9 255 200 0
41 3 19 255 200 0
41 3 20 255 200 0
41 3 47 0 175 0
41 4 6 255 200 0
41 4 7 255 200 0
41 4 8 255 200 0
41 4 19 255 200 0
41 4 20 255 200 0
41 5 20 255 200 0
42 0 7 255 200 0
42 0 8 255 200 0
42 0 9 75 0 75
42 0 10 75 0 75
42 0 11 75 0 75
42 0 12 255 120 50
42 0 13 255 120 50
42 0 20 255 200 0
42 0 21 255 200 0
42 0 53 75 0 75
42 0 54 75 0 75
42 0 55 75 0 75
42 0 58 255 0 255
42 0 59 255 0 255
42 0 60 255 0 255
42 0 61 255 0 255
42 0 62 255 0 255
42 0 63 255 0 255
42 1 7 255 200 0
42 1 8 255 200 0
42 1 12 255 120 50
42 1 20 255 200 0
42 1 21 255 200 0
42 2 6 255 200 0
42 2 8 255 200 0
42 2 9 255 200 0
42 2 20 255 200 0
42 2 21 255 200 0
42 3 6 255 200 0
42 3 8 255 200 0
42 3 9 255 200 0
42 3 10 255 200 0
42 3 20 255 200 0
42 3 21 255 200 0
42 4 6 255 200 0
42 4 7 255 200 0
42 4 8 255 200 0
42 4 20 255 200 0
42 4 21 255 200 0
42 5 20 255 200 0
42 5 21 255 200 0
43 0 8 255 200 0
43 0 9 255 200 0
43 0 10 75 0 75
43 0 12 255 120 50
43 0 13 255 120 50
43 0 22 255 120 50
43 0 53 75 0 75
43 0 54 75 0 75
43 0 55 75 0 75
43 0 56 75 0 75
43 0 59 255 0 255
43 0 60 255 0 255
43 0 61 255 0 255
43 0 62 255 0 255
43 0 63 255 0 255
43 1 8 255 200 0
43 1 9 255 200 0
43 1 12 255 120 50
43 1 22 255 120 50
43 2 3 255 200 0
43 2 7 255 200 0
43 2 8 255 200 0
43 2 9 255 200 0
43 2 22 255 120 50
43 3 1 255 200 0
43 3 3 255 200 0
43 3 8 255 200 0
43 3 9 255 200 0
43 3 10 255 200 0
43 4 8 255 200 0
43 4 9 255 200 0
44 0 7 255 200 0
44 0 8 255 200 0
44 0 9 255 200 0
44 0 10 255 200 0
44 0 13 255 120 50
44 0 14 255 120 50
44 0 22 255 120 50
44 0 23 255 120 50
44 0 54 75 0 75
44 0 55 75 0 75
44 0 56 75 0 75
44 0 59 255 0 255
44 0 60 255 0 255
44 0 61 255 0 255
44 0 62 255 0 255
44 0 63 255 0 255
44 1 7 255 200 0
44 1 8 255 200 0
44 1 9 255 200 0
44 1 10 255 200 0
44 1 13 255 120 50
44 1 22 255 120 50
44 1 23 255 120 50
44 1 54 0 175 0
44 1 55 0 175 0
44 2 2 255 200 0
44 2 7 255 200 0
44 2 8 255 200 0
44 2 9 255 200 0
44 2 10 255 200 0
44 2 22 255 200 0
44 2 23 255 200 0
44 2 54 0 175 0
44 2 55 0 175 0
44 3 1 255 200 0
44 3 2 255 200 0
44 3 9 255 200 0
44 3 10 255 200 0
44 4 9 255 200 0
44 4 10 255 200 0
45 0 7 255 200 0
45 0 9 255 200 0
45 0 10 255 200 0
45 0 14 255 120 50
45 0 22 255 200 0
45 0 23 255 200 0
45 0 55 0 175 0
45 0 61 255 0 255
45 0 62 255 0 255
45 0 63 255 0 255
45 1 6 255 200 0
45 1 7 255 200 0
45 1 9 255 200 0
45 1 10 255 200 0
45 1 22 255 200 0
45 1 23 255 200 0
45 1 52 0 175 0
45 1 53 0 175 0
45 1 54 0 175 0
45 1 55 0 175 0
45 1 56 0 175 0
45 2 4 255 200 0
45 2 6 255 200 0
45 2 7 255 200 0
45 2 9 255 200 0
45 2 10 255 200 0
45 2 21 255 200 0
45 2 22 255 200 0
45 2 23 255 200 0
45 2 53 0 175 0
45 2 54 0 175 0
45 2 55 0 175 0
45 3 9 255 200 0
45 3 10 255 200 0
45 4 9 255 200 0
45 4 10 255 200 0
46 0 10 255 200 0
46 0 11 255 200 0
46 0 14 255 120 50
46 0 15 255 120 50
46 0 20 255 200 0
46 0 21 255 200 0
46 0 22 255 200 0
46 0 55 0 175 0
46 0 56 0 175 0
46 0 57 75 0 75
46 0 58 100 150 245
46 0 60 100 150 245
46 0 61 255 0 255
46 0 62 255 0 255
46 0 63 255 0 255
46 1 5 255 200 0
46 1 6 255 200 0
46 1 10 255 200 0
46 1 11 255 200 0
46 1 20 255 200 0
46 1 21 255 200 0
46 1 22 255 200 0
46 1 31 0 175 0
46 1 32 0 175 0
46 1 52 0 175 0
46 1 56 0 175 0
46 1 58 100 150 245
46 1 59 100 150 245
46 2 6 255 200 0
46 2 10 255 200 0
46 2 11 255 200 0
46 2 20 255 200 0
46 2 21 255 200 0
46 2 22 255 200 0
46 2 31 0 175 0
46 2 32 0 175 0
46 2 52 0 175 0
46 2 53 0 175 0
46 2 54 0 175 0
46 2 55 0 175 0
46 3 10 255 200 0
46 3 11 255 200 0
46 3 54 0 175 0
46 3 55 0 175 0
46 4 10 255 200 0
46 4 11 255 200 0
46 4 51 255 200 0
46 4 52 255 200 0
46 4 54 0 175 0
46 4 55 0 175 0
46 5 52 255 200 0
46 5 55 0 175 0
47 0 11 255 200 0
47 0 15 255 120 50
47 0 19 255 200 0
47 0 20 255 200 0
47 0 21 255 200 0
47 0 33 0 175 0
47 0 34 0 175 0
47 0 56 0 175 0
47 0 57 75 0 75
47 0 58 75 0 75
47 0 61 255 0 255
47 0 62 255 0 255
47 0 63 255 0 255
47 1 11 255 200 0
47 1 19 255 200 0
47 1 20 255 200 0
47 1 21 255 200 0
47 1 32 0 175 0
47 1 33 0 175 0
47 1 56 0 175 0
47 1 57 0 175 0
47 1 58 75 0 75
47 1 59 100 150 245
47 2 10 255 200 0
47 2 11 255 200 0
47 2 18 255 200 0
47 2 19 255 200 0
47 2 20 255 200 0
47 2 30 0 175 0
47 2 31 0 175 0
47 2 32 0 175 0
47 2 33 0 175 0
47 2 34 0 175 0
47 2 35 0 175 0
47 2 50 255 200 0
47 2 51 255 200 0
47 2 52 255 200 0
47 2 54 0 175 0
47 2 55 0 175 0
47 2 56 0 175 0
47 2 57 0 175 0
47 3 10 255 200 0
47 3 11 255 200 0
47 3 19 255 200 0
47 3 31 0 175 0
47 3 32 0 175 0
47 3 33 0 175 0
47 3 34 0 175 0
47 3 50 255 200 0
47 3 51 255 200 0
47 3 52 255 200 0
47 3 54 0 175 0
47 3 55 0 175 0
47 3 56 0 175 0
47 4 11 255 200 0
47 4 20 255 200 0
47 4 32 0 175 0
47 4 33 0 175 0
47 4 50 255 200 0
47 4 51 255 200 0
47 4 52 255 200 0
47 4 54 0 175 0
47 4 55 0 175 0
47 5 50 255 200 0
47 5 51 255 200 0
47 5 52 255 200 0
47 5 54 0 175 0
47 5 55 0 175 0
48 0 11 255 200 0
48 0 12 255 200 0
48 0 17 255 200 0
48 0 18 255 200 0
48 0 19 255 200 0
48 0 36 255 200 0
48 0 37 255 200 0
48 0 57 75 0 75
48 0 61 255 0 255
48 0 62 255 0 255
48 1 11 255 200 0
48 1 12 255 200 0
48 1 17 255 200 0
48 1 18 255 200 0
48 1 19 255 200 0
48 1 33 0 175 0
48 1 34 0 175 0
48 1 36 255 200 0
48 1 37 255 200 0
48 1 57 0 175 0
48 2 11 255 200 0
48 2 12 255 200 0
48 2 16 255 200 0
48 2 17 255 200 0
48 2 18 255 200 0
48 2 19 255 200 0
48 2 32 0 175 0
48 2 33 0 175 0
48 2 34 0 175 0
48 2 35 0 175 0
48 2 48 255 200 0
48 2 49 255 200 0
48 2 50 255 200 0
48 2 52 255 200 0
48 2 53 255 200 0
48 2 54 0 175 0
48 2 56 0 175 0
48 2 57 0 175 0
48 2 59 100 150 245
48 2 60 100 150 245
48 2 61 100 150 245
48 3 1 255 200 0
48 3 11 255 200 0
48 3 12 255 200 0
48 3 32 0 175 0
48 3 33 0 175 0
48 3 34 0 175 0
48 3 48 255 200 0
48 3 49 255 200 0
48 3 50 255 200 0
48 3 54 0 175 0
48 3 56 0 175 0
48 3 57 0 175 0
48 3 58 0 175 0
48 4 11 255 200 0
48 4 12 255 200 0
48 4 48 255 200 0
48 4 49 255 200 0
48 4 50 255 200 0
48 4 54 0 175 0
48 4 56 0 175 0
48 4 57 0 175 0
48 4 58 0 175 0
48 5 38 0 175 0
48 5 50 255 200 0
48 5 56 0 175 0
48 5 57 0 175 0
48 5 58 0 175 0
49 0 12 255 200 0
49 0 13 255 200 0
49 0 16 255 200 0
49 0 17 255 200 0
49 0 35 255 200 0
49 0 57 0 175 0
49 0 58 75 0 75
49 0 59 75 0 75
49 0 60 75 0 75
49 1 12 255 200 0
49 1 13 255 200 0
49 1 16 255 200 0
49 1 17 255 200 0
49 1 18 255 200 0
49 1 33 0 175 0
49 1 34 0 175 0
49 1 35 0 175 0
49 1 53 255 200 0
49 1 57 0 175 0
49 1 58 0 175 0
49 2 12 255 200 0
49 2 13 255 200 0
49 2 16 255 200 0
49 2 17 255 200 0
49 2 31 0 175 0
49 2 33 0 175 0
49 2 34 0 175 0
49 2 35 0 175 0
49 2 36 0 175 0
49 2 48 255 200 0
49 2 53 255 200 0
49 2 54 0 175 0
49 2 55 0 175 0
49 2 57 0 175 0
49 2 58 0 175 0
49 2 60 100 150 245
49 3 0 255 200 0
49 3 12 255 200 0
49 3 13 255 200 0
49 3 31 0 175 0
49 3 48 255 200 0
49 3 53 255 200 0
49 3 54 0 175 0
49 3 55 0 175 0
49 3 58 0 175 0
49 4 12 255 200 0
49 4 13 255 200 0
49 4 36 0 175 0
49 4 37 0 175 0
49 4 38 0 175 0
49 4 47 255 200 0
49 4 48 255 200 0
49 4 53 255 200 0
49 4 54 0 175 0
49 4 55 0 175 0
49 4 57 0 175 0
49 4 58 0 175 0
49 4 59 0 175 0
49 5 36 0 175 0
49 5 37 0 175 0
49 5 38 0 175 0
49 5 39 0 175 0
49 5 53 255 200 0
49 5 55 0 175 0
49 5 56 0 175 0
49 5 57 0 175 0
49 5 58 0 175 0
49 5 59 0 175 0
49 6 36 0 175 0
49 6 37 0 175 0
49 6 38 0 175 0
49 6 39 0 175 0
50 0 13 255 200 0
50 0 16 255 200 0
50 0 17 255 200 0
50 0 31 0 175 0
50 0 58 0 175 0
50 0 63 255 0 255
50 1 13 255 200 0
50 1 16 255 200 0
50 1 17 255 200 0
50 1 30 0 175 0
50 1 31 0 175 0
50 1 34 0 175 0
50 1 35 0 175 0
50 1 36 0 175 0
50 1 58 0 175 0
50 1 59 0 175 0
50 2 13 255 200 0
50 2 16 255 200 0
50 2 17 255 200 0
50 2 30 0 175 0
50 2 31 0 175 0
50 2 32 0 175 0
50 2 33 0 175 0
50 2 34 0 175 0
50 2 35 0 175 0
50 2 36 0 175 0
50 2 37 0 175 0
50 2 53 255 200 0
50 2 54 255 200 0
50 2 55 0 175 0
50 2 58 0 175 0
50 2 59 0 175 0
50 3 13 255 200 0
50 3 30 0 175 0
50 3 31 0 175 0
50 3 32 0 175 0
50 3 34 0 175 0
50 3 37 0 175 0
50 3 38 0 175 0
50 3 39 0 175 0
50 3 53 255 200 0
50 3 54 0 175 0
50 3 55 0 175 0
50 4 13 255 200 0
50 4 34 0 175 0
50 4 35 0 175 0
50 4 36 0 175 0
50 4 37 0 175 0
50 4 38 0 175 0
50 4 39 0 175 0
50 4 40 0 175 0
50 4 53 255 200 0
50 4 54 0 175 0
50 4 55 0 175 0
50 5 29 0 175 0
50 5 33 0 175 0
50 5 34 0 175 0
50 5 35 0 175 0
50 5 36 0 175 0
50 5 37 0 175 0
50 5 38 0 175 0
50 5 39 0 175 0
50 5 54 255 200 0
50 5 55 0 175 0
50 5 56 0 175 0
50 6 35 0 175 0
50 6 36 0 175 0
50 6 37 0 175 0
50 6 38 0 175 0
50 6 39 0 175 0
50 6 40 0 175 0
51 0 13 255 200 0
51 0 14 255 200 0
51 0 17 255 200 0
51 0 18 255 200 0
51 0 34 255 200 0
51 0 58 0 175 0
51 0 59 0 175 0
51 1 13 255 200 0
51 1 14 255 200 0
51 1 17 255 200 0
51 1 18 255 200 0
51 1 30 0 175 0
51 1 35 255 200 0
51 1 36 255 200 0
51 1 59 0 175 0
51 2 13 255 200 0
51 2 14 255 200 0
51 2 17 255 200 0
51 2 18 255 200 0
51 2 29 0 175 0
51 2 30 0 175 0
51 2 31 0 175 0
51 2 35 255 200 0
51 2 36 255 200 0
51 2 37 0 175 0
51 2 54 255 200 0
51 2 55 0 175 0
51 2 58 0 175 0
51 2 59 0 175 0
51 3 13 255 200 0
51 3 14 255 200 0
51 3 29 0 175 0
51 3 30 0 175 0
51 3 31 0 175 0
51 3 33 0 175 0
51 3 34 0 175 0
51 3 36 0 175 0
51 3 37 0 175 0
51 3 38 0 175 0
51 3 54 255 200 0
51 4 13 255 200 0
51 4 14 255 200 0
51 4 29 0 175 0
51 4 30 0 175 0
51 4 31 0 175 0
51 4 32 0 175 0
51 4 33 0 175 0
51 4 34 0 175 0
51 4 35 0 175 0
51 4 37 0 175 0
51 4 38 0 175 0
51 4 39 0 175 0
51 4 44 255 200 0
51 4 45 255 200 0
51 4 54 255 200 0
51 4 55 255 200 0
51 5 29 0 175 0
51 5 30 0 175 0
51 5 31 0 175 0
51 5 32 0 175 0
51 5 33 0 175 0
51 5 34 0 175 0
51 5 35 0 175 0
51 5 36 0 175 0
51 5 37 0 175 0
51 5 38 0 175 0
51 5 44 255 200 0
51 5 45 255 200 0
51 5 54 255 200 0
51 5 55 0 175 0
51 6 29 0 175 0
51 6 30 0 175 0
51 6 31 0 175 0
51 6 34 0 175 0
51 6 35 0 175 0
51 6 36 0 175 0
51 6 37 0 175 0
51 6 38 0 175 0
51 6 39 0 175 0
51 6 44 255 200 0
52 0 14 255 200 0
52 0 18 255 200 0
52 0 34 255 200 0
52 0 35 255 200 0
52 0 59 0 175 0
52 0 60 75 0 75
52 0 61 75 0 75
52 1 14 255 200 0
52 1 18 255 200 0
52 1 34 255 200 0
52 1 35 255 200 0
52 2 14 255 200 0
52 2 18 255 200 0
52 2 29 0 175 0
52 2 30 0 175 0
52 2 31 0 175 0
52 2 34 255 200 0
52 2 35 255 200 0
52 2 42 255 200 0
52 2 43 255 200 0
52 2 55 255 200 0
52 2 59 0 175 0
52 3 14 255 200 0
52 3 29 0 175 0
52 3 30 0 175 0
52 3 31 0 175 0
52 3 36 0 175 0
52 3 42 255 200 0
52 3 43 255 200 0
52 3 55 255 200 0
52 4 14 255 200 0
52 4 27 0 175 0
52 4 28 0 175 0
52 4 29 0 175 0
52 4 30 0 175 0
52 4 31 0 175 0
52 4 32 0 175 0
52 4 33 0 175 0
52 4 34 0 175 0
52 4 36 0 175 0
52 4 37 0 175 0
52 4 38 0 175 0
52 4 39 0 175 0
52 4 40 0 175 0
52 4 42 255 200 0
52 4 43 255 200 0
52 4 44 255 200 0
52 4 54 255 200 0
52 4 55 255 200 0
52 5 28 0 175 0
52 5 29 0 175 0
52 5 30 0 175 0
52 5 31 0 175 0
52 5 32 0 175 0
52 5 33 0 175 0
52 5 34 0 175 0
52 5 35 0 175 0
52 5 36 0 175 0
52 5 37 0 175 0
52 5 38 0 175 0
52 5 39 0 175 0
52 5 55 255 200 0
52 6 27 0 175 0
52 6 28 0 175 0
52 6 29 0 175 0
52 6 30 0 175 0
52 6 31 0 175 0
52 6 32 0 175 0
52 6 34 0 175 0
52 6 35 0 175 0
52 6 36 0 175 0
52 6 37 0 175 0
52 6 38 0 175 0
52 6 39 0 175 0
53 0 18 255 200 0
53 0 19 255 200 0
53 0 60 0 175 0
53 0 61 75 0 75
53 0 62 75 0 75
53 1 18 255 200 0
53 1 19 255 200 0
53 1 60 0 175 0
53 2 18 255 200 0
53 2 19 255 200 0
53 2 31 0 175 0
53 2 42 255 200 0
53 2 55 255 200 0
53 2 56 255 200 0
53 2 60 0 175 0
53 3 27 0 175 0
53 3 28 0 175 0
53 3 29 0 175 0
53 3 31 0 175 0
53 3 40 0 175 0
