ply
format ascii 1.0
element vertex 2783
property float x
property float y
property float z
property uchar red
property uchar green
property uchar blue
end_header
25 2 111 0 175 0
25 2 112 0 175 0
25 2 119 0 175 0
25 2 120 0 175 0
25 2 121 0 175 0
25 2 122 0 175 0
25 2 123 0 175 0
25 3 56 255 120 50
25 3 57 255 120 50
25 3 58 0 175 0
25 3 60 0 175 0
25 3 61 0 175 0
25 3 62 0 175 0
25 3 63 0 175 0
25 3 64 0 175 0
25 3 65 0 175 0
25 3 66 0 175 0
25 3 67 0 175 0
25 3 68 0 175 0
25 3 69 0 175 0
25 3 70 0 175 0
25 3 91 100 150 245
25 3 92 100 150 245
25 3 93 100 150 245
25 3 94 100 150 245
25 3 95 100 150 245
25 3 96 100 150 245
25 3 108 0 175 0
25 3 109 0 175 0
25 3 110 0 175 0
25 3 111 0 175 0
25 3 112 0 175 0
25 3 119 0 175 0
25 4 56 255 120 50
25 4 57 255 120 50
25 4 58 0 175 0
25 4 59 0 175 0
25 4 60 0 175 0
25 4 61 0 175 0
25 4 62 0 175 0
25 4 63 0 175 0
25 4 64 0 175 0
25 4 65 0 175 0
25 4 66 0 175 0
25 4 67 0 175 0
25 4 68 0 175 0
25 4 69 0 175 0
25 4 70 0 175 0
25 4 92 100 150 245
25 4 93 100 150 245
25 4 108 0 175 0
25 4 109 0 175 0
25 4 110 0 175 0
25 4 111 0 175 0
25 4 112 0 175 0
25 4 119 0 175 0
25 5 56 255 120 50
25 5 57 255 120 50
25 5 58 0 175 0
25 5 59 0 175 0
25 5 60 0 175 0
25 5 61 0 175 0
25 5 62 0 175 0
25 5 63 0 175 0
25 5 64 0 175 0
25 5 65 0 175 0
25 5 66 0 175 0
25 5 67 0 175 0
25 5 68 0 175 0
25 5 69 0 175 0
25 5 70 0 175 0
25 5 109 0 175 0
25 5 110 0 175 0
25 5 111 0 175 0
25 5 112 0 175 0
25 5 119 0 175 0
25 6 56 255 120 50
25 6 57 0 175 0
25 6 58 0 175 0
25 6 59 0 175 0
25 6 60 0 175 0
25 6 62 0 175 0
25 6 63 0 175 0
25 6 64 0 175 0
25 6 65 0 175 0
25 6 66 0 175 0
25 6 67 0 175 0
25 6 68 0 175 0
25 6 69 0 175 0
25 6 71 0 175 0
25 6 109 0 175 0
25 6 110 0 175 0
25 6 111 0 175 0
25 7 67 0 175 0
25 7 69 0 175 0
25 7 70 0 175 0
25 7 111 0 175 0
25 8 71 0 175 0
25 8 72 0 175 0
25 9 68 0 175 0
25 9 71 0 175 0
25 9 72 0 175 0
25 10 62 0 175 0
25 10 63 0 175 0
25 10 65 0 175 0
25 10 67 0 175 0
25 10 68 0 175 0
25 10 69 0 175 0
25 11 62 0 175 0
25 11 67 0 175 0
26 0 57 255 120 50
26 0 58 255 120 50
26 0 59 255 120 50
26 0 60 0 175 0
26 0 61 0 175 0
26 0 62 0 175 0
26 0 63 0 175 0
26 0 64 0 175 0
26 0 65 0 175 0
26 0 66 0 175 0
26 0 67 150 240 80
26 0 68 150 240 80
26 0 69 150 240 80
26 0 70 150 240 80
26 0 71 150 240 80
26 0 72 150 240 80
26 0 73 150 240 80
26 0 74 255 0 255
26 0 75 255 0 255
26 0 76 255 0 255
26 0 77 255 0 255
26 0 78 255 0 255
26 0 79 255 0 255
26 0 80 255 0 255
26 0 81 255 0 255
26 0 82 255 0 255
26 0 83 255 0 255
26 0 84 255 0 255
26 0 85 255 0 255
26 0 86 255 0 255
26 0 87 255 0 255
26 0 88 255 0 255
26 0 89 255 0 255
26 0 90 255 0 255
26 0 91 255 0 255
26 0 92 255 0 255
26 0 93 100 150 245
26 0 94 255 0 255
26 0 95 255 0 255
26 0 96 255 0 255
26 0 97 255 0 255
26 0 98 75 0 75
26 0 99 75 0 75
26 0 100 75 0 75
26 0 101 75 0 75
26 0 102 75 0 75
26 0 103 75 0 75
26 0 104 75 0 75
26 0 105 75 0 75
26 0 106 75 0 75
26 0 107 75 0 75
26 0 108 75 0 75
26 0 109 75 0 75
26 0 110 75 0 75
26 0 111 255 120 50
26 0 119 150 240 80
26 0 120 150 240 80
26 0 121 150 240 80
26 0 122 0 175 0
26 0 123 150 240 80
26 0 124 150 240 80
26 0 125 150 240 80
26 0 126 150 240 80
26 0 127 150 240 80
26 1 57 255 120 50
26 1 58 255 120 50
26 1 59 255 120 50
26 1 60 0 175 0
26 1 61 0 175 0
26 1 62 0 175 0
26 1 63 0 175 0
26 1 64 0 175 0
26 1 65 0 175 0
26 1 66 0 175 0
26 1 67 0 175 0
26 1 68 0 175 0
26 1 69 0 175 0
26 1 72 0 175 0
26 1 75 255 0 255
26 1 76 255 0 255
26 1 80 255 0 255
26 1 92 100 150 245
26 1 93 100 150 245
26 1 94 100 150 245
26 1 95 100 150 245
26 1 96 100 150 245
26 1 109 255 120 50
26 1 110 255 120 50
26 1 111 255 120 50
26 1 112 255 120 50
26 1 119 0 175 0
26 1 120 0 175 0
26 1 121 0 175 0
26 1 122 0 175 0
26 1 123 0 175 0
26 2 57 255 120 50
26 2 58 255 120 50
26 2 60 0 175 0
26 2 61 0 175 0
26 2 62 0 175 0
26 2 63 0 175 0
26 2 64 0 175 0
26 2 65 0 175 0
26 2 66 0 175 0
26 2 67 0 175 0
26 2 68 0 175 0
26 2 69 0 175 0
26 2 70 0 175 0
26 2 71 0 175 0
26 2 92 100 150 245
26 2 93 100 150 245
26 2 94 100 150 245
26 2 95 100 150 245
26 2 96 100 150 245
26 2 108 255 120 50
26 2 109 255 120 50
26 2 110 0 175 0
26 2 111 0 175 0
26 2 112 255 120 50
26 2 118 0 175 0
26 2 119 0 175 0
26 2 120 0 175 0
26 2 121 0 175 0
26 2 122 0 175 0
26 2 123 0 175 0
26 2 124 0 175 0
26 3 58 255 120 50
26 3 59 255 120 50
26 3 60 0 175 0
26 3 61 0 175 0
26 3 62 0 175 0
26 3 63 0 175 0
26 3 64 0 175 0
26 3 65 0 175 0
26 3 66 0 175 0
26 3 67 0 175 0
26 3 68 0 175 0
26 3 69 0 175 0
26 3 70 0 175 0
26 3 92 100 150 245
26 3 93 100 150 245
26 3 94 100 150 245
26 3 95 100 150 245
26 3 108 255 120 50
26 3 109 0 175 0
26 3 110 0 175 0
26 3 111 0 175 0
26 3 112 0 175 0
26 3 117 0 175 0
26 3 118 0 175 0
26 3 119 0 175 0
26 3 120 0 175 0
26 3 121 0 175 0
26 3 122 0 175 0
26 3 123 0 175 0
26 3 124 0 175 0
26 4 57 255 120 50
26 4 58 255 120 50
26 4 59 0 175 0
26 4 60 0 175 0
26 4 61 0 175 0
26 4 62 0 175 0
26 4 63 0 175 0
26 4 64 0 175 0
26 4 65 0 175 0
26 4 66 0 175 0
26 4 67 0 175 0
26 4 68 0 175 0
26 4 69 0 175 0
26 4 70 0 175 0
26 4 108 0 175 0
26 4 109 0 175 0
26 4 110 0 175 0
26 4 111 0 175 0
26 4 112 0 175 0
26 4 118 0 175 0
26 4 119 0 175 0
26 4 120 0 175 0
26 4 121 0 175 0
26 4 122 0 175 0
26 4 123 0 175 0
26 4 124 0 175 0
26 5 57 255 120 50
26 5 58 255 120 50
26 5 59 255 120 50
26 5 60 0 175 0
26 5 61 0 175 0
26 5 62 0 175 0
26 5 63 0 175 0
26 5 64 0 175 0
26 5 65 0 175 0
26 5 66 0 175 0
26 5 67 0 175 0
26 5 68 0 175 0
26 5 69 0 175 0
26 5 70 0 175 0
26 5 71 0 175 0
26 5 72 0 175 0
26 5 110 0 175 0
26 5 111 0 175 0
26 5 119 0 175 0
26 5 120 0 175 0
26 6 59 0 175 0
26 6 60 0 175 0
26 6 63 0 175 0
26 6 65 0 175 0
26 6 67 0 175 0
26 6 68 0 175 0
26 6 69 0 175 0
26 6 70 0 175 0
26 6 71 0 175 0
26 6 72 0 175 0
26 6 73 0 175 0
26 6 74 0 175 0
26 6 110 0 175 0
26 6 111 0 175 0
26 6 119 0 175 0
26 6 120 0 175 0
26 7 69 0 175 0
26 7 70 0 175 0
26 7 73 0 175 0
26 7 74 0 175 0
26 8 71 0 175 0
26 8 72 0 175 0
26 8 73 0 175 0
26 8 74 0 175 0
26 9 67 0 175 0
26 9 70 0 175 0
26 9 71 0 175 0
26 9 72 0 175 0
26 10 65 0 175 0
26 10 66 0 175 0
26 10 67 0 175 0
26 10 68 0 175 0
26 10 69 0 175 0
26 10 70 0 175 0
26 10 71 0 175 0
26 11 65 0 175 0
26 11 69 0 175 0
26 11 70 0 175 0
27 0 59 255 120 50
27 0 60 0 175 0
27 0 61 0 175 0
27 0 62 0 175 0
27 0 63 0 175 0
27 0 64 0 175 0
27 0 65 0 175 0
27 0 66 0 175 0
27 0 67 0 175 0
27 0 68 150 240 80
27 0 69 150 240 80
27 0 70 150 240 80
27 0 71 150 240 80
27 0 72 150 240 80
27 0 73 150 240 80
27 0 74 150 240 80
27 0 75 255 0 255
27 0 76 255 0 255
27 0 77 255 0 255
27 0 78 255 0 255
27 0 79 255 0 255
27 0 80 255 0 255
27 0 81 255 0 255
27 0 82 255 0 255
27 0 83 255 0 255
27 0 84 255 0 255
27 0 85 255 0 255
27 0 86 255 0 255
27 0 87 255 0 255
27 0 88 255 0 255
27 0 89 255 0 255
27 0 90 255 0 255
27 0 91 255 0 255
27 0 92 255 0 255
27 0 93 255 0 255
27 0 94 255 0 255
27 0 95 255 0 255
27 0 96 255 0 255
27 0 97 255 0 255
27 0 98 255 0 255
27 0 99 75 0 75
27 0 100 75 0 75
27 0 101 75 0 75
27 0 102 75 0 75
27 0 103 75 0 75
27 0 104 75 0 75
27 0 105 75 0 75
27 0 106 75 0 75
27 0 107 75 0 75
27 0 108 75 0 75
27 0 109 75 0 75
27 0 110 75 0 75
27 0 111 75 0 75
27 0 112 255 120 50
27 0 113 255 120 50
27 0 119 0 175 0
27 0 120 150 240 80
27 0 121 150 240 80
27 0 122 150 240 80
27 0 123 0 175 0
27 0 124 150 240 80
27 0 125 150 240 80
27 0 126 150 240 80
27 0 127 150 240 80
27 1 58 255 120 50
27 1 59 255 120 50
27 1 60 255 120 50
27 1 61 0 175 0
27 1 62 0 175 0
27 1 63 0 175 0
27 1 64 0 175 0
27 1 65 0 175 0
27 1 66 0 175 0
27 1 67 0 175 0
27 1 68 0 175 0
27 1 69 0 175 0
27 1 70 0 175 0
27 1 74 0 175 0
27 1 75 255 0 255
27 1 78 255 0 255
27 1 84 255 0 255
27 1 93 100 150 245
27 1 94 100 150 245
27 1 95 100 150 245
27 1 110 255 120 50
27 1 111 255 120 50
27 1 112 255 120 50
27 1 113 255 120 50
27 1 114 255 120 50
27 1 118 0 175 0
27 1 119 0 175 0
27 1 120 0 175 0
27 1 121 0 175 0
27 1 122 0 175 0
27 1 123 0 175 0
27 1 124 0 175 0
27 2 59 255 120 50
27 2 60 255 120 50
27 2 61 0 175 0
27 2 62 0 175 0
27 2 63 0 175 0
27 2 64 0 175 0
27 2 65 0 175 0
27 2 66 0 175 0
27 2 67 0 175 0
27 2 68 0 175 0
27 2 69 0 175 0
27 2 70 0 175 0
27 2 71 0 175 0
27 2 72 0 175 0
27 2 73 0 175 0
27 2 93 100 150 245
27 2 94 100 150 245
27 2 95 100 150 245
27 2 110 0 175 0
27 2 111 255 120 50
27 2 112 255 120 50
27 2 113 255 120 50
27 2 114 255 120 50
27 2 117 0 175 0
27 2 118 0 175 0
27 2 119 0 175 0
27 2 120 0 175 0
27 2 121 0 175 0
27 2 122 0 175 0
27 2 123 0 175 0
27 2 124 0 175 0
27 3 58 255 120 50
27 3 59 255 120 50
27 3 60 255 120 50
27 3 61 0 175 0
27 3 62 0 175 0
27 3 63 0 175 0
27 3 64 0 175 0
27 3 65 0 175 0
27 3 66 0 175 0
27 3 67 0 175 0
27 3 68 0 175 0
27 3 69 0 175 0
27 3 70 0 175 0
27 3 71 0 175 0
27 3 72 0 175 0
27 3 94 100 150 245
27 3 109 0 175 0
27 3 110 0 175 0
27 3 111 255 120 50
27 3 112 255 120 50
27 3 113 255 120 50
27 3 116 150 240 80
27 3 117 0 175 0
27 3 118 0 175 0
27 3 119 0 175 0
27 3 120 0 175 0
27 3 122 0 175 0
27 3 123 0 175 0
27 3 124 0 175 0
27 4 58 255 120 50
27 4 59 255 120 50
27 4 60 255 120 50
27 4 61 0 175 0
27 4 62 0 175 0
27 4 63 0 175 0
27 4 64 0 175 0
27 4 65 0 175 0
27 4 66 0 175 0
27 4 67 0 175 0
27 4 68 0 175 0
27 4 69 0 175 0
27 4 70 0 175 0
27 4 71 0 175 0
27 4 72 0 175 0
27 4 117 0 175 0
27 4 118 0 175 0
27 4 119 0 175 0
27 4 120 0 175 0
27 4 121 0 175 0
27 4 122 0 175 0
27 4 123 0 175 0
27 4 124 0 175 0
27 5 59 255 120 50
27 5 60 255 120 50
27 5 61 0 175 0
27 5 62 0 175 0
27 5 63 0 175 0
27 5 64 0 175 0
27 5 65 0 175 0
27 5 66 0 175 0
27 5 67 0 175 0
27 5 68 0 175 0
27 5 69 0 175 0
27 5 70 0 175 0
27 5 71 0 175 0
27 5 72 0 175 0
27 5 73 0 175 0
27 5 74 0 175 0
27 5 75 0 175 0
27 5 116 0 175 0
27 5 117 0 175 0
27 5 118 0 175 0
27 5 119 0 175 0
27 5 120 0 175 0
27 5 121 0 175 0
27 6 59 255 120 50
27 6 60 255 120 50
27 6 65 0 175 0
27 6 67 0 175 0
27 6 68 0 175 0
27 6 69 0 175 0
27 6 71 0 175 0
27 6 72 0 175 0
27 6 73 0 175 0
27 6 74 0 175 0
27 6 75 0 175 0
27 6 119 0 175 0
27 6 120 0 175 0
27 7 72 0 175 0
27 7 73 0 175 0
27 7 74 0 175 0
27 7 75 0 175 0
27 7 76 0 175 0
27 8 72 0 175 0
27 8 73 0 175 0
27 8 74 0 175 0
27 8 75 0 175 0
27 9 70 0 175 0
27 9 72 0 175 0
27 9 73 0 175 0
27 9 74 0 175 0
27 10 66 0 175 0
27 10 67 0 175 0
27 10 69 0 175 0
27 10 70 0 175 0
27 10 71 0 175 0
27 11 69 0 175 0
28 0 61 255 120 50
28 0 62 0 175 0
28 0 63 0 175 0
28 0 64 0 175 0
28 0 65 0 175 0
28 0 66 0 175 0
28 0 67 0 175 0
28 0 68 0 175 0
28 0 69 150 240 80
28 0 70 150 240 80
28 0 71 150 240 80
28 0 72 150 240 80
28 0 73 150 240 80
28 0 74 150 240 80
28 0 75 150 240 80
28 0 76 255 0 255
28 0 77 255 0 255
28 0 78 255 0 255
28 0 79 255 0 255
28 0 80 255 0 255
28 0 81 255 0 255
28 0 82 255 0 255
28 0 83 255 0 255
28 0 84 255 0 255
28 0 85 255 0 255
28 0 86 255 0 255
28 0 87 255 0 255
28 0 88 255 0 255
28 0 89 255 0 255
28 0 90 255 0 255
28 0 91 255 0 255
28 0 92 255 0 255
28 0 93 255 0 255
28 0 94 255 0 255
28 0 95 255 0 255
28 0 96 255 0 255
28 0 97 255 0 255
28 0 98 255 0 255
28 0 99 255 0 255
28 0 100 75 0 75
28 0 101 75 0 75
28 0 102 75 0 75
28 0 103 75 0 75
28 0 104 75 0 75
28 0 105 75 0 75
28 0 106 75 0 75
28 0 107 75 0 75
28 0 108 75 0 75
28 0 109 75 0 75
28 0 110 75 0 75
28 0 111 75 0 75
28 0 112 75 0 75
28 0 113 255 120 50
28 0 114 255 120 50
28 0 124 150 240 80
28 0 125 150 240 80
28 0 126 150 240 80
28 0 127 150 240 80
28 1 60 255 120 50
28 1 61 255 120 50
28 1 62 0 175 0
28 1 63 0 175 0
28 1 64 0 175 0
28 1 65 0 175 0
28 1 66 0 175 0
28 1 67 0 175 0
28 1 68 0 175 0
28 1 69 0 175 0
28 1 70 0 175 0
28 1 71 0 175 0
28 1 72 0 175 0
28 1 74 0 175 0
28 1 75 0 175 0
28 1 83 255 0 255
28 1 84 255 0 255
28 1 88 255 0 255
28 1 91 255 0 255
28 1 112 255 120 50
28 1 113 255 120 50
28 1 114 255 120 50
28 1 115 255 120 50
28 1 123 0 175 0
28 1 124 0 175 0
28 2 60 255 120 50
28 2 61 255 120 50
28 2 62 0 175 0
28 2 63 0 175 0
28 2 64 0 175 0
28 2 65 0 175 0
28 2 66 0 175 0
28 2 67 0 175 0
28 2 68 0 175 0
28 2 69 0 175 0
28 2 70 0 175 0
28 2 71 0 175 0
28 2 72 0 175 0
28 2 73 0 175 0
28 2 75 0 175 0
28 2 113 255 120 50
28 2 114 255 120 50
28 2 115 255 120 50
28 2 117 0 175 0
28 2 118 0 175 0
28 2 119 0 175 0
28 2 120 0 175 0
28 2 123 0 175 0
28 2 124 0 175 0
28 3 59 255 120 50
28 3 60 255 120 50
28 3 61 255 120 50
28 3 62 0 175 0
28 3 63 0 175 0
28 3 64 0 175 0
28 3 65 0 175 0
28 3 66 0 175 0
28 3 67 0 175 0
28 3 68 0 175 0
28 3 69 0 175 0
28 3 70 0 175 0
28 3 71 0 175 0
28 3 72 0 175 0
28 3 74 0 175 0
28 3 113 255 120 50
28 3 114 255 120 50
28 3 116 0 175 0
28 3 117 0 175 0
28 3 118 0 175 0
28 3 119 0 175 0
28 3 120 0 175 0
28 4 59 255 120 50
28 4 60 255 120 50
28 4 61 255 120 50
28 4 64 0 175 0
28 4 65 0 175 0
28 4 66 0 175 0
28 4 67 0 175 0
28 4 68 0 175 0
28 4 69 0 175 0
28 4 70 0 175 0
28 4 71 0 175 0
28 4 72 0 175 0
28 4 74 0 175 0
28 4 116 0 175 0
28 4 117 0 175 0
28 4 118 0 175 0
28 4 119 0 175 0
28 4 120 0 175 0
28 4 121 0 175 0
28 5 60 255 120 50
28 5 61 255 120 50
28 5 62 255 120 50
28 5 63 0 175 0
28 5 64 0 175 0
28 5 65 0 175 0
28 5 66 0 175 0
28 5 67 0 175 0
28 5 68 0 175 0
28 5 69 0 175 0
28 5 70 0 175 0
28 5 71 0 175 0
28 5 72 0 175 0
28 5 73 0 175 0
28 5 74 0 175 0
28 5 75 0 175 0
28 5 116 0 175 0
28 5 117 0 175 0
28 5 118 0 175 0
28 5 119 0 175 0
28 5 120 0 175 0
28 5 121 0 175 0
28 6 65 0 175 0
28 6 66 0 175 0
28 6 67 0 175 0
28 6 68 0 175 0
28 6 69 0 175 0
28 6 70 0 175 0
28 6 71 0 175 0
28 6 72 0 175 0
28 6 73 0 175 0
28 6 74 0 175 0
28 6 75 0 175 0
28 6 76 0 175 0
28 6 77 0 175 0
28 6 118 0 175 0
28 6 119 0 175 0
28 6 120 0 175 0
28 7 73 0 175 0
28 7 74 0 175 0
28 7 75 0 175 0
28 7 76 0 175 0
28 7 77 0 175 0
28 8 73 0 175 0
28 8 74 0 175 0
28 8 75 0 175 0
28 9 71 0 175 0
28 9 72 0 175 0
28 9 73 0 175 0
28 9 74 0 175 0
28 10 69 0 175 0
28 10 70 0 175 0
28 10 71 0 175 0
28 10 73 0 175 0
28 11 61 255 120 50
28 11 68 0 175 0
28 11 69 0 175 0
29 0 62 255 120 50
29 0 63 0 175 0
29 0 64 0 175 0
29 0 65 0 175 0
29 0 66 0 175 0
29 0 67 0 175 0
29 0 68 0 175 0
29 0 69 0 175 0
29 0 70 0 175 0
29 0 71 0 175 0
29 0 72 0 175 0
29 0 73 150 240 80
29 0 74 150 240 80
29 0 75 150 240 80
29 0 76 150 240 80
29 0 77 150 240 80
29 0 78 255 0 255
29 0 79 255 0 255
29 0 80 255 0 255
29 0 81 255 0 255
29 0 82 255 0 255
29 0 83 255 0 255
29 0 84 255 0 255
29 0 85 255 0 255
29 0 86 255 0 255
29 0 87 255 0 255
29 0 88 255 0 255
29 0 89 255 0 255
29 0 90 255 0 255
29 0 91 255 0 255
29 0 92 255 0 255
29 0 93 255 0 255
29 0 94 255 0 255
29 0 95 255 0 255
29 0 96 255 0 255
29 0 97 255 0 255
29 0 98 255 0 255
29 0 99 255 0 255
29 0 100 255 0 255
29 0 101 255 0 255
29 0 102 75 0 75
29 0 103 75 0 75
29 0 104 75 0 75
29 0 105 75 0 75
29 0 106 75 0 75
29 0 107 75 0 75
29 0 108 75 0 75
29 0 109 75 0 75
29 0 110 75 0 75
29 0 111 75 0 75
29 0 112 75 0 75
29 0 113 75 0 75
29 0 114 75 0 75
29 0 115 255 120 50
29 0 116 255 120 50
29 0 124 150 240 80
29 0 125 150 240 80
29 0 126 150 240 80
29 0 127 150 240 80
29 1 61 255 120 50
29 1 62 255 120 50
29 1 63 0 175 0
29 1 64 0 175 0
29 1 65 0 175 0
29 1 66 0 175 0
29 1 67 0 175 0
29 1 68 0 175 0
29 1 69 0 175 0
29 1 70 0 175 0
29 1 71 0 175 0
29 1 72 0 175 0
29 1 73 0 175 0
29 1 75 0 175 0
29 1 76 0 175 0
29 1 83 255 0 255
29 1 88 255 0 255
29 1 91 255 0 255
29 1 114 255 120 50
29 1 115 255 120 50
29 1 116 255 120 50
29 1 117 255 120 50
29 2 61 255 120 50
29 2 62 255 120 50
29 2 63 255 120 50
29 2 64 0 175 0
29 2 65 0 175 0
29 2 66 0 175 0
29 2 67 0 175 0
29 2 68 0 175 0
29 2 69 0 175 0
29 2 70 0 175 0
29 2 71 0 175 0
29 2 72 0 175 0
29 2 73 0 175 0
29 2 114 255 120 50
29 2 115 255 120 50
29 2 116 255 120 50
29 2 117 255 120 50
29 3 60 255 120 50
29 3 61 255 120 50
29 3 62 255 120 50
29 3 63 0 175 0
29 3 64 0 175 0
29 3 65 0 175 0
29 3 66 0 175 0
29 3 67 0 175 0
29 3 68 0 175 0
29 3 69 0 175 0
29 3 70 0 175 0
29 3 71 0 175 0
29 3 72 0 175 0
29 3 73 0 175 0
29 3 74 0 175 0
29 3 75 0 175 0
29 3 115 255 120 50
29 3 117 0 175 0
29 3 119 0 175 0
29 3 120 0 175 0
29 4 60 255 120 50
29 4 61 255 120 50
29 4 62 255 120 50
29 4 63 0 175 0
29 4 64 0 175 0
29 4 65 0 175 0
29 4 66 0 175 0
29 4 67 0 175 0
29 4 68 0 175 0
29 4 69 0 175 0
29 4 70 0 175 0
29 4 71 0 175 0
29 4 72 0 175 0
29 4 73 0 175 0
29 4 74 0 175 0
29 4 75 0 175 0
29 4 116 0 175 0
29 4 117 0 175 0
29 4 118 0 175 0
29 5 61 255 120 50
29 5 62 255 120 50
29 5 63 0 175 0
29 5 64 0 175 0
29 5 65 0 175 0
29 5 66 0 175 0
29 5 67 0 175 0
29 5 68 0 175 0
29 5 69 0 175 0
29 5 70 0 175 0
29 5 71 0 175 0
29 5 72 0 175 0
29 5 73 0 175 0
29 5 74 0 175 0
29 5 75 0 175 0
29 5 76 0 175 0
29 5 77 0 175 0
29 5 116 0 175 0
29 5 117 0 175 0
29 6 61 255 120 50
29 6 68 0 175 0
29 6 70 0 175 0
29 6 71 0 175 0
29 6 72 0 175 0
29 6 73 0 175 0
29 6 74 0 175 0
29 6 75 0 175 0
29 6 76 0 175 0
29 6 77 0 175 0
29 7 71 0 175 0
29 7 72 0 175 0
29 7 73 0 175 0
29 7 74 0 175 0
29 7 75 0 175 0
29 7 76 0 175 0
29 7 77 0 175 0
29 7 78 0 175 0
29 8 72 0 175 0
29 8 73 0 175 0
29 8 74 0 175 0
29 8 75 0 175 0
29 8 76 0 175 0
29 9 72 0 175 0
29 9 73 0 175 0
29 9 74 0 175 0
29 9 75 0 175 0
29 10 64 0 175 0
29 10 66 0 175 0
29 10 70 0 175 0
29 10 71 0 175 0
29 10 72 0 175 0
29 10 73 0 175 0
29 10 74 0 175 0
30 0 62 255 120 50
30 0 63 255 120 50
30 0 64 255 120 50
30 0 65 0 175 0
30 0 66 0 175 0
30 0 67 0 175 0
30 0 68 0 175 0
30 0 69 0 175 0
30 0 70 0 175 0
30 0 71 0 175 0
30 0 72 0 175 0
30 0 73 0 175 0
30 0 74 150 240 80
30 0 75 150 240 80
30 0 76 150 240 80
30 0 77 150 240 80
30 0 78 150 240 80
30 0 79 255 0 255
30 0 80 255 0 255
30 0 81 255 0 255
30 0 82 255 0 255
30 0 83 255 0 255
30 0 84 255 0 255
30 0 85 255 0 255
30 0 86 255 0 255
30 0 87 255 0 255
30 0 88 255 0 255
30 0 89 255 0 255
30 0 90 255 0 255
30 0 91 255 0 255
30 0 92 255 0 255
30 0 93 255 0 255
30 0 94 255 0 255
30 0 95 255 0 255
30 0 96 255 0 255
30 0 97 255 0 255
30 0 98 255 0 255
30 0 99 255 0 255
30 0 100 255 0 255
30 0 101 255 0 255
30 0 102 255 0 255
30 0 103 75 0 75
30 0 104 75 0 75
30 0 105 75 0 75
30 0 106 75 0 75
30 0 107 75 0 75
30 0 108 75 0 75
30 0 109 75 0 75
30 0 110 75 0 75
30 0 111 75 0 75
30 0 112 75 0 75
30 0 113 75 0 75
30 0 114 75 0 75
30 0 115 75 0 75
30 0 116 75 0 75
30 0 117 255 120 50
30 0 126 150 240 80
30 0 127 150 240 80
30 1 63 255 120 50
30 1 64 255 120 50
30 1 65 0 175 0
30 1 66 0 175 0
30 1 67 0 175 0
30 1 68 0 175 0
30 1 69 0 175 0
30 1 70 0 175 0
30 1 71 0 175 0
30 1 72 0 175 0
30 1 73 0 175 0
30 1 74 0 175 0
30 1 77 0 175 0
30 1 82 255 0 255
30 1 83 255 0 255
30 1 87 255 0 255
30 1 88 255 0 255
30 1 91 255 0 255
30 1 115 255 120 50
30 1 116 255 120 50
30 1 117 255 120 50
30 1 118 255 120 50
30 1 127 0 175 0
30 2 62 255 120 50
30 2 63 255 120 50
30 2 64 0 175 0
30 2 65 0 175 0
30 2 66 0 175 0
30 2 67 0 175 0
30 2 68 0 175 0
30 2 69 0 175 0
30 2 70 0 175 0
30 2 71 0 175 0
30 2 72 0 175 0
30 2 73 0 175 0
30 2 74 0 175 0
30 2 75 0 175 0
30 2 77 0 175 0
30 2 78 0 175 0
30 2 115 255 120 50
30 2 116 255 120 50
30 2 117 255 120 50
30 2 118 255 120 50
30 2 119 150 240 80
30 3 63 255 120 50
30 3 64 255 120 50
30 3 65 0 175 0
30 3 66 0 175 0
30 3 67 0 175 0
30 3 68 0 175 0
30 3 69 0 175 0
30 3 70 0 175 0
30 3 71 0 175 0
30 3 72 0 175 0
30 3 73 0 175 0
30 3 74 0 175 0
30 3 75 0 175 0
30 3 76 0 175 0
30 4 61 255 120 50
30 4 63 255 120 50
30 4 64 255 120 50
30 4 65 0 175 0
30 4 66 0 175 0
30 4 67 0 175 0
30 4 68 0 175 0
30 4 69 0 175 0
30 4 70 0 175 0
30 4 71 0 175 0
30 4 72 0 175 0
30 4 73 0 175 0
30 4 74 0 175 0
30 4 75 0 175 0
30 4 76 0 175 0
30 5 62 255 120 50
30 5 63 255 120 50
30 5 64 255 120 50
30 5 65 0 175 0
30 5 66 0 175 0
30 5 67 0 175 0
30 5 68 0 175 0
30 5 69 0 175 0
30 5 70 0 175 0
30 5 71 0 175 0
30 5 72 0 175 0
30 5 73 0 175 0
30 5 74 0 175 0
30 5 75 0 175 0
30 5 76 0 175 0
30 5 77 0 175 0
30 6 68 0 175 0
30 6 70 0 175 0
30 6 71 0 175 0
30 6 72 0 175 0
30 6 73 0 175 0
30 6 74 0 175 0
30 6 75 0 175 0
30 6 76 0 175 0
30 6 77 0 175 0
30 7 71 0 175 0
30 7 72 0 175 0
30 7 73 0 175 0
30 7 74 0 175 0
30 7 75 0 175 0
30 7 76 0 175 0
30 7 77 0 175 0
30 7 78 0 175 0
30 8 66 0 175 0
30 8 72 0 175 0
30 8 73 0 175 0
30 8 74 0 175 0
30 8 75 0 175 0
30 8 76 0 175 0
30 9 66 0 175 0
30 9 69 0 175 0
30 9 71 0 175 0
30 9 72 0 175 0
30 9 73 0 175 0
30 9 74 0 175 0
30 9 75 0 175 0
30 10 64 0 175 0
30 10 72 0 175 0
30 10 73 0 175 0
30 10 74 0 175 0
30 10 75 0 175 0
30 11 72 0 175 0
31 0 64 255 120 50
31 0 65 255 120 50
31 0 66 0 175 0
31 0 67 0 175 0
31 0 68 0 175 0
31 0 69 0 175 0
31 0 70 0 175 0
31 0 71 0 175 0
31 0 72 0 175 0
31 0 73 0 175 0
31 0 74 150 240 80
31 0 75 150 240 80
31 0 76 150 240 80
31 0 77 150 240 80
31 0 78 150 240 80
31 0 79 0 175 0
31 0 80 255 0 255
31 0 81 255 0 255
31 0 82 255 0 255
31 0 83 255 0 255
31 0 84 255 0 255
31 0 85 255 0 255
31 0 86 255 0 255
31 0 87 255 0 255
31 0 88 255 0 255
31 0 89 255 0 255
31 0 90 255 0 255
31 0 91 255 0 255
31 0 92 255 0 255
31 0 93 255 0 255
31 0 94 255 0 255
31 0 95 255 0 255
31 0 96 255 0 255
31 0 97 255 0 255
31 0 98 255 0 255
31 0 99 255 0 255
31 0 100 255 0 255
31 0 101 255 0 255
31 0 102 255 0 255
31 0 103 255 0 255
31 0 104 255 0 255
31 0 105 75 0 75
31 0 106 75 0 75
31 0 107 75 0 75
31 0 108 75 0 75
31 0 109 75 0 75
31 0 110 75 0 75
31 0 111 75 0 75
31 0 112 75 0 75
31 0 113 75 0 75
31 0 114 75 0 75
31 0 115 75 0 75
31 0 116 75 0 75
31 0 117 75 0 75
31 0 118 255 120 50
31 0 119 255 120 50
31 0 126 0 175 0
31 0 127 0 175 0
31 1 64 255 120 50
31 1 65 255 120 50
31 1 66 0 175 0
31 1 67 0 175 0
31 1 68 0 175 0
31 1 69 0 175 0
31 1 70 0 175 0
31 1 71 0 175 0
31 1 72 0 175 0
31 1 73 0 175 0
31 1 74 0 175 0
31 1 76 0 175 0
31 1 77 0 175 0
31 1 78 0 175 0
31 1 81 255 0 255
31 1 82 255 0 255
31 1 87 255 0 255
31 1 90 255 0 255
31 1 91 255 0 255
31 1 117 255 120 50
31 1 118 255 120 50
31 1 119 255 120 50
31 1 120 255 120 50
31 1 126 0 175 0
31 1 127 0 175 0
31 2 64 255 120 50
31 2 65 255 120 50
31 2 66 0 175 0
31 2 67 0 175 0
31 2 68 0 175 0
31 2 69 0 175 0
31 2 70 0 175 0
31 2 71 0 175 0
31 2 72 0 175 0
31 2 73 0 175 0
31 2 74 0 175 0
31 2 75 0 175 0
31 2 76 0 175 0
31 2 77 0 175 0
31 2 78 0 175 0
31 2 79 0 175 0
31 2 80 0 175 0
31 2 117 255 120 50
31 2 118 255 120 50
31 2 119 255 120 50
31 2 120 255 120 50
31 3 63 255 120 50
31 3 64 255 120 50
31 3 65 255 120 50
31 3 66 0 175 0
31 3 67 0 175 0
31 3 68 0 175 0
31 3 69 0 175 0
31 3 70 0 175 0
31 3 71 0 175 0
31 3 72 0 175 0
31 3 73 0 175 0
31 3 74 0 175 0
31 3 75 0 175 0
31 3 76 0 175 0
31 3 77 0 175 0
31 4 64 255 120 50
31 4 65 255 120 50
31 4 66 0 175 0
31 4 67 0 175 0
31 4 68 0 175 0
31 4 69 0 175 0
31 4 70 0 175 0
31 4 71 0 175 0
31 4 72 0 175 0
31 4 73 0 175 0
31 4 74 0 175 0
31 4 75 0 175 0
31 4 76 0 175 0
31 4 77 0 175 0
31 4 78 0 175 0
31 5 63 255 120 50
31 5 64 255 120 50
31 5 65 255 120 50
31 5 66 0 175 0
31 5 67 0 175 0
31 5 68 0 175 0
31 5 69 0 175 0
31 5 70 0 175 0
31 5 71 0 175 0
31 5 72 0 175 0
31 5 73 0 175 0
31 5 74 0 175 0
31 5 75 0 175 0
31 5 76 0 175 0
31 5 77 0 175 0
31 5 78 0 175 0
31 6 68 0 175 0
31 6 70 0 175 0
31 6 71 0 175 0
31 6 72 0 175 0
31 6 73 0 175 0
31 6 74 0 175 0
31 6 75 0 175 0
31 6 76 0 175 0
31 6 77 0 175 0
31 6 78 0 175 0
31 7 73 0 175 0
31 7 74 0 175 0
31 7 75 0 175 0
31 7 76 0 175 0
31 7 77 0 175 0
31 7 78 0 175 0
31 8 71 0 175 0
31 8 72 0 175 0
31 8 73 0 175 0
31 8 74 0 175 0
31 8 75 0 175 0
31 8 76 0 175 0
31 8 77 0 175 0
31 9 70 0 175 0
31 9 71 0 175 0
31 9 72 0 175 0
31 9 74 0 175 0
31 9 75 0 175 0
31 9 76 0 175 0
31 10 70 0 175 0
31 10 71 0 175 0
31 10 72 0 175 0
31 10 73 0 175 0
31 10 76 0 175 0
31 11 68 0 175 0
31 11 72 0 175 0
32 0 65 255 120 50
32 0 66 255 120 50
32 0 67 255 120 50
32 0 68 0 175 0
32 0 69 0 175 0
32 0 70 0 175 0
32 0 71 0 175 0
32 0 72 0 175 0
32 0 73 0 175 0
32 0 74 150 240 80
32 0 75 150 240 80
32 0 76 150 240 80
32 0 77 150 240 80
32 0 78 150 240 80
32 0 79 150 240 80
32 0 80 150 240 80
32 0 81 255 0 255
32 0 82 255 0 255
32 0 83 255 0 255
32 0 84 255 0 255
32 0 85 255 0 255
32 0 86 255 0 255
32 0 87 255 0 255
32 0 88 255 0 255
32 0 89 255 0 255
32 0 90 255 0 255
32 0 91 255 0 255
32 0 92 255 0 255
32 0 93 255 0 255
32 0 94 255 0 255
32 0 95 255 0 255
32 0 96 255 0 255
32 0 97 255 0 255
32 0 98 255 0 255
32 0 99 255 0 255
32 0 100 255 0 255
32 0 101 255 0 255
32 0 102 255 0 255
32 0 103 255 0 255
32 0 104 255 0 255
32 0 105 255 0 255
32 0 106 75 0 75
32 0 107 75 0 75
32 0 108 75 0 75
32 0 109 75 0 75
32 0 110 75 0 75
32 0 111 75 0 75
32 0 112 75 0 75
32 0 113 75 0 75
32 0 114 75 0 75
32 0 115 75 0 75
32 0 116 75 0 75
32 0 117 75 0 75
32 0 118 75 0 75
32 0 119 75 0 75
32 0 120 255 120 50
32 0 127 0 175 0
32 1 65 255 120 50
32 1 66 255 120 50
32 1 67 0 175 0
32 1 69 0 175 0
32 1 70 0 175 0
32 1 71 0 175 0
32 1 72 0 175 0
32 1 73 0 175 0
32 1 74 0 175 0
32 1 75 0 175 0
32 1 76 0 175 0
32 1 77 0 175 0
32 1 78 0 175 0
32 1 79 0 175 0
32 1 80 150 240 80
32 1 81 150 240 80
32 1 87 255 0 255
32 1 90 255 0 255
32 1 118 255 120 50
32 1 119 255 120 50
32 1 120 255 120 50
32 1 121 255 120 50
32 1 126 0 175 0
32 1 127 0 175 0
32 2 65 255 120 50
32 2 66 255 120 50
32 2 67 0 175 0
32 2 68 0 175 0
32 2 69 0 175 0
32 2 70 0 175 0
32 2 71 0 175 0
32 2 72 0 175 0
32 2 73 0 175 0
32 2 74 0 175 0
32 2 75 0 175 0
32 2 76 0 175 0
32 2 77 0 175 0
32 2 78 0 175 0
32 2 118 255 120 50
32 2 119 255 120 50
32 2 120 255 120 50
32 2 121 255 120 50
32 3 64 255 120 50
32 3 65 255 120 50
32 3 66 255 120 50
32 3 67 0 175 0
32 3 68 0 175 0
32 3 69 0 175 0
32 3 70 0 175 0
32 3 71 0 175 0
32 3 72 0 175 0
32 3 73 0 175 0
32 3 74 0 175 0
32 3 75 0 175 0
32 3 76 0 175 0
32 3 77 0 175 0
32 3 78 0 175 0
32 4 65 255 120 50
32 4 66 255 120 50
32 4 67 0 175 0
32 4 68 0 175 0
32 4 69 0 175 0
32 4 70 0 175 0
32 4 71 0 175 0
32 4 72 0 175 0
32 4 73 0 175 0
32 4 74 0 175 0
32 4 75 0 175 0
32 4 76 0 175 0
32 4 77 0 175 0
32 4 78 0 175 0
32 5 65 255 120 50
32 5 66 255 120 50
32 5 67 0 175 0
32 5 68 0 175 0
32 5 69 0 175 0
32 5 70 0 175 0
32 5 71 0 175 0
32 5 72 0 175 0
32 5 73 0 175 0
32 5 74 0 175 0
32 5 75 0 175 0
32 5 76 0 175 0
32 5 77 0 175 0
32 5 78 0 175 0
32 5 79 0 175 0
32 6 70 0 175 0
32 6 71 0 175 0
32 6 72 0 175 0
32 6 73 0 175 0
32 6 74 0 175 0
32 6 75 0 175 0
32 6 76 0 175 0
32 6 77 0 175 0
32 6 78 0 175 0
32 7 74 0 175 0
32 7 75 0 175 0
32 7 76 0 175 0
32 7 77 0 175 0
32 7 78 0 175 0
32 8 71 0 175 0
32 8 72 0 175 0
32 8 73 0 175 0
32 8 74 0 175 0
32 8 75 0 175 0
32 8 76 0 175 0
32 8 77 0 175 0
32 8 78 0 175 0
32 9 70 0 175 0
32 9 71 0 175 0
32 9 72 0 175 0
32 9 73 0 175 0
32 9 74 0 175 0
32 9 75 0 175 0
32 9 76 0 175 0
32 10 70 0 175 0
32 10 71 0 175 0
32 10 72 0 175 0
32 10 74 0 175 0
32 10 75 0 175 0
32 10 76 0 175 0
32 10 77 0 175 0
32 11 72 0 175 0
32 11 74 0 175 0
33 0 66 255 120 50
33 0 67 255 120 50
33 0 68 255 120 50
33 0 70 0 175 0
33 0 71 0 175 0
33 0 72 0 175 0
33 0 73 0 175 0
33 0 74 0 175 0
33 0 75 0 175 0
33 0 76 0 175 0
33 0 77 150 240 80
33 0 78 150 240 80
33 0 79 150 240 80
33 0 80 150 240 80
33 0 81 150 240 80
33 0 82 150 240 80
33 0 83 255 0 255
33 0 84 255 0 255
33 0 85 255 0 255
33 0 86 255 0 255
33 0 87 255 0 255
33 0 88 255 0 255
33 0 89 255 0 255
33 0 90 255 0 255
33 0 91 255 0 255
33 0 92 255 0 255
33 0 93 255 0 255
33 0 94 255 0 255
33 0 95 255 0 255
33 0 96 255 0 255
33 0 97 255 0 255
33 0 98 255 0 255
33 0 99 255 0 255
33 0 100 255 0 255
33 0 101 255 0 255
33 0 102 255 0 255
33 0 103 255 0 255
33 0 104 255 0 255
33 0 105 255 0 255
33 0 106 255 0 255
33 0 107 75 0 75
33 0 108 75 0 75
33 0 109 75 0 75
33 0 110 75 0 75
33 0 111 75 0 75
33 0 112 75 0 75
33 0 113 75 0 75
33 0 114 75 0 75
33 0 115 75 0 75
33 0 116 75 0 75
33 0 117 75 0 75
33 0 118 75 0 75
33 0 119 75 0 75
33 0 120 75 0 75
33 0 121 255 120 50
33 0 122 255 120 50
33 1 66 255 120 50
33 1 67 255 120 50
33 1 68 255 120 50
33 1 69 0 175 0
33 1 70 0 175 0
33 1 71 0 175 0
33 1 72 0 175 0
33 1 73 0 175 0
33 1 74 0 175 0
33 1 75 0 175 0
33 1 76 0 175 0
33 1 77 0 175 0
33 1 78 0 175 0
33 1 79 0 175 0
33 1 80 0 175 0
33 1 81 150 240 80
33 1 87 255 0 255
33 1 89 255 0 255
33 1 90 255 0 255
33 1 120 255 120 50
33 1 121 255 120 50
33 1 122 255 120 50
33 1 123 255 120 50
33 2 66 255 120 50
33 2 67 255 120 50
33 2 68 0 175 0
33 2 69 0 175 0
33 2 70 0 175 0
33 2 71 0 175 0
33 2 72 0 175 0
33 2 73 0 175 0
33 2 74 0 175 0
33 2 75 0 175 0
33 2 76 0 175 0
33 2 77 0 175 0
33 2 78 0 175 0
33 2 79 0 175 0
33 2 81 150 240 80
33 2 82 150 240 80
33 2 120 255 120 50
33 2 121 255 120 50
33 2 122 255 120 50
33 3 66 255 120 50
33 3 67 255 120 50
33 3 68 255 120 50
33 3 69 0 175 0
33 3 70 0 175 0
33 3 71 0 175 0
33 3 72 0 175 0
33 3 73 0 175 0
33 3 74 0 175 0
33 3 75 0 175 0
33 3 76 0 175 0
33 3 77 0 175 0
33 3 78 0 175 0
33 3 79 0 175 0
33 3 80 0 175 0
33 4 66 255 120 50
33 4 67 255 120 50
33 4 68 255 120 50
33 4 69 0 175 0
33 4 70 0 175 0
33 4 71 0 175 0
33 4 72 0 175 0
33 4 73 0 175 0
33 4 74 0 175 0
33 4 75 0 175 0
33 4 76 0 175 0
33 4 77 0 175 0
33 4 78 0 175 0
33 4 79 0 175 0
33 4 80 0 175 0
33 4 81 0 175 0
33 5 65 255 120 50
33 5 66 255 120 50
33 5 67 255 120 50
33 5 68 255 120 50
33 5 69 0 175 0
33 5 70 0 175 0
33 5 71 0 175 0
33 5 72 0 175 0
33 5 73 0 175 0
33 5 74 0 175 0
33 5 75 0 175 0
33 5 76 0 175 0
33 5 77 0 175 0
33 5 78 0 175 0
33 5 79 0 175 0
33 5 80 0 175 0
33 5 81 0 175 0
33 6 68 0 175 0
33 6 71 0 175 0
33 6 74 0 175 0
33 6 75 0 175 0
33 6 76 0 175 0
33 6 77 0 175 0
33 6 78 0 175 0
33 6 79 0 175 0
33 6 80 0 175 0
33 7 74 0 175 0
33 7 76 0 175 0
33 7 77 0 175 0
33 7 78 0 175 0
33 8 74 0 175 0
33 8 75 0 175 0
33 8 77 0 175 0
33 8 78 0 175 0
33 9 71 0 175 0
33 9 72 0 175 0
33 9 73 0 175 0
33 9 74 0 175 0
33 9 75 0 175 0
33 10 70 0 175 0
33 10 71 0 175 0
33 10 72 0 175 0
33 10 74 0 175 0
33 11 74 0 175 0
33 11 75 0 175 0
34 0 67 255 120 50
34 0 68 255 120 50
34 0 71 0 175 0
34 0 72 0 175 0
34 0 73 0 175 0
34 0 74 0 175 0
34 0 75 0 175 0
34 0 76 0 175 0
34 0 77 150 240 80
34 0 78 150 240 80
34 0 79 150 240 80
34 0 80 150 240 80
34 0 81 150 240 80
34 0 82 150 240 80
34 0 83 150 240 80
34 0 84 255 0 255
34 0 85 255 0 255
34 0 86 255 0 255
34 0 87 255 0 255
34 0 88 255 0 255
34 0 89 255 0 255
34 0 90 255 0 255
34 0 91 255 0 255
34 0 92 255 0 255
34 0 93 255 0 255
34 0 94 255 0 255
34 0 95 255 0 255
34 0 96 255 0 255
34 0 97 255 0 255
34 0 98 255 0 255
34 0 99 255 0 255
34 0 100 255 0 255
34 0 101 255 0 255
34 0 102 255 0 255
34 0 103 255 0 255
34 0 104 255 0 255
34 0 105 255 0 255
34 0 106 255 0 255
34 0 107 255 0 255
34 0 108 75 0 75
34 0 109 75 0 75
34 0 110 75 0 75
34 0 111 75 0 75
34 0 112 75 0 75
34 0 113 75 0 75
34 0 114 75 0 75
34 0 115 75 0 75
34 0 116 75 0 75
34 0 117 75 0 75
34 0 118 75 0 75
34 0 119 75 0 75
34 0 120 75 0 75
34 0 121 75 0 75
34 0 122 255 120 50
34 0 123 255 120 50
34 1 68 255 120 50
34 1 69 255 120 50
34 1 70 0 175 0
34 1 71 0 175 0
34 1 72 0 175 0
34 1 73 0 175 0
34 1 74 0 175 0
34 1 75 0 175 0
34 1 76 0 175 0
34 1 77 0 175 0
34 1 78 0 175 0
34 1 79 0 175 0
34 1 80 0 175 0
34 1 81 150 240 80
34 1 83 0 175 0
34 1 121 255 120 50
34 1 122 255 120 50
34 1 123 255 120 50
34 1 124 255 120 50
34 2 68 255 120 50
34 2 69 255 120 50
34 2 70 0 175 0
34 2 71 0 175 0
34 2 72 0 175 0
34 2 73 0 175 0
34 2 74 0 175 0
34 2 75 0 175 0
34 2 76 0 175 0
34 2 77 0 175 0
34 2 78 0 175 0
34 2 79 0 175 0
34 2 80 0 175 0
34 2 83 0 175 0
34 2 122 255 120 50
34 2 123 255 120 50
34 2 124 255 120 50
34 3 67 255 120 50
34 3 68 255 120 50
34 3 69 255 120 50
34 3 70 0 175 0
34 3 71 0 175 0
34 3 72 0 175 0
34 3 73 0 175 0
34 3 74 0 175 0
34 3 75 0 175 0
34 3 76 0 175 0
34 3 77 0 175 0
34 3 78 0 175 0
34 3 79 0 175 0
34 3 80 0 175 0
34 3 81 0 175 0
34 4 67 255 120 50
34 4 68 255 120 50
34 4 69 255 120 50
34 4 70 0 175 0
34 4 71 0 175 0
34 4 72 0 175 0
34 4 73 0 175 0
34 4 74 0 175 0
34 4 75 0 175 0
34 4 76 0 175 0
34 4 77 0 175 0
34 4 78 0 175 0
34 4 79 0 175 0
34 4 80 0 175 0
34 4 81 0 175 0
34 5 67 255 120 50
34 5 68 255 120 50
34 5 69 255 120 50
34 5 70 0 175 0
34 5 71 0 175 0
34 5 72 0 175 0
34 5 73 0 175 0
34 5 74 0 175 0
34 5 75 0 175 0
34 5 76 0 175 0
34 5 77 0 175 0
34 5 78 0 175 0
34 5 79 0 175 0
34 5 80 0 175 0
34 5 81 0 175 0
34 6 69 255 120 50
34 6 73 0 175 0
34 6 76 0 175 0
34 6 77 0 175 0
34 6 78 0 175 0
34 6 79 0 175 0
34 6 80 0 175 0
34 7 76 0 175 0
34 7 77 0 175 0
34 7 78 0 175 0
34 7 79 0 175 0
34 7 80 0 175 0
34 8 74 0 175 0
34 8 75 0 175 0
34 8 76 0 175 0
34 8 77 0 175 0
34 8 78 0 175 0
34 8 79 0 175 0
34 9 71 0 175 0
34 9 72 0 175 0
34 9 73 0 175 0
34 9 74 0 175 0
34 9 75 0 175 0
34 9 78 0 175 0
34 10 70 0 175 0
34 10 71 0 175 0
34 10 72 0 175 0
34 10 78 0 175 0
34 11 72 0 175 0
34 11 73 0 175 0
34 11 74 0 175 0
35 0 69 255 120 50
35 0 70 255 120 50
35 0 71 255 120 50
35 0 72 0 175 0
35 0 73 0 175 0
35 0 74 0 175 0
35 0 75 0 175 0
35 0 76 0 175 0
35 0 77 0 175 0
35 0 78 150 240 80
35 0 79 0 175 0
35 0 80 0 175 0
35 0 81 0 175 0
35 0 82 150 240 80
35 0 83 150 240 80
35 0 84 150 240 80
35 0 85 255 0 255
35 0 86 255 0 255
35 0 87 255 0 255
35 0 88 255 0 255
35 0 89 255 0 255
35 0 90 255 0 255
35 0 91 255 0 255
35 0 92 255 0 255
35 0 93 255 0 255
35 0 94 255 0 255
35 0 95 255 0 255
35 0 96 255 0 255
35 0 97 255 0 255
35 0 98 255 0 255
35 0 99 255 0 255
35 0 100 255 0 255
35 0 101 255 0 255
35 0 102 255 0 255
35 0 103 255 0 255
35 0 104 255 0 255
35 0 105 255 0 255
35 0 106 255 0 255
35 0 107 255 0 255
35 0 108 255 0 255
35 0 109 255 0 255
35 0 110 75 0 75
35 0 111 75 0 75
35 0 112 75 0 75
35 0 113 75 0 75
35 0 114 75 0 75
35 0 115 75 0 75
35 0 116 75 0 75
35 0 117 75 0 75
35 0 118 75 0 75
35 0 119 75 0 75
35 0 120 75 0 75
35 0 121 75 0 75
35 0 122 75 0 75
35 0 123 75 0 75
35 0 124 255 120 50
35 0 125 255 120 50
35 1 69 255 120 50
35 1 70 255 120 50
35 1 71 0 175 0
35 1 72 0 175 0
35 1 73 0 175 0
35 1 74 0 175 0
35 1 75 0 175 0
35 1 76 0 175 0
35 1 77 0 175 0
35 1 78 0 175 0
35 1 79 0 175 0
35 1 80 0 175 0
35 1 81 0 175 0
35 1 82 0 175 0
35 1 83 0 175 0
35 1 123 255 120 50
35 1 124 255 120 50
35 1 125 255 120 50
35 2 69 255 120 50
35 2 70 255 120 50
35 2 71 0 175 0
35 2 72 0 175 0
35 2 73 0 175 0
35 2 74 0 175 0
35 2 75 0 175 0
35 2 76 0 175 0
35 2 77 0 175 0
35 2 78 0 175 0
35 2 79 0 175 0
35 2 80 0 175 0
35 2 81 0 175 0
35 2 82 0 175 0
35 2 123 255 120 50
35 2 124 255 120 50
35 2 125 255 120 50
35 3 69 255 120 50
35 3 70 255 120 50
35 3 71 0 175 0
35 3 72 0 175 0
35 3 73 0 175 0
35 3 74 0 175 0
35 3 75 0 175 0
35 3 76 0 175 0
35 3 77 0 175 0
35 3 78 0 175 0
35 3 79 0 175 0
35 3 80 0 175 0
35 3 81 0 175 0
35 3 82 0 175 0
35 3 83 0 175 0
35 4 68 255 120 50
35 4 69 255 120 50
35 4 70 255 120 50
35 4 71 0 175 0
35 4 72 0 175 0
35 4 73 0 175 0
35 4 74 0 175 0
35 4 75 0 175 0
35 4 76 0 175 0
35 4 77 0 175 0
35 4 78 0 175 0
35 4 79 0 175 0
35 4 80 0 175 0
35 4 81 0 175 0
35 4 82 0 175 0
35 4 83 0 175 0
35 5 69 255 120 50
35 5 70 255 120 50
35 5 71 0 175 0
35 5 72 0 175 0
35 5 73 0 175 0
35 5 74 0 175 0
35 5 75 0 175 0
35 5 76 0 175 0
35 5 77 0 175 0
35 5 78 0 175 0
35 5 79 0 175 0
35 5 80 0 175 0
35 5 81 0 175 0
35 5 82 0 175 0
35 5 83 0 175 0
35 6 70 255 120 50
35 6 72 0 175 0
35 6 77 0 175 0
35 6 78 0 175 0
35 6 79 0 175 0
35 6 80 0 175 0
35 6 81 0 175 0
35 7 77 0 175 0
35 7 78 0 175 0
35 7 79 0 175 0
35 7 80 0 175 0
35 8 77 0 175 0
35 8 78 0 175 0
35 8 79 0 175 0
35 9 78 0 175 0
35 10 71 0 175 0
35 10 72 0 175 0
35 10 73 0 175 0
36 0 70 255 120 50
36 0 71 255 120 50
36 0 72 0 175 0
36 0 73 0 175 0
36 0 74 0 175 0
36 0 75 0 175 0
36 0 76 0 175 0
36 0 77 0 175 0
36 0 78 0 175 0
36 0 79 0 175 0
36 0 80 0 175 0
36 0 81 0 175 0
36 0 82 0 175 0
36 0 83 150 240 80
36 0 84 150 240 80
36 0 85 150 240 80
36 0 86 255 0 255
36 0 87 255 0 255
36 0 88 255 0 255
36 0 89 255 0 255
36 0 90 255 0 255
36 0 91 255 0 255
36 0 92 255 0 255
36 0 93 255 0 255
36 0 94 255 0 255
36 0 95 255 0 255
36 0 96 255 0 255
36 0 97 255 0 255
36 0 98 255 0 255
36 0 99 255 0 255
36 0 100 255 0 255
36 0 101 255 0 255
36 0 102 255 0 255
36 0 103 255 0 255
36 0 104 255 0 255
36 0 105 255 0 255
36 0 106 255 0 255
36 0 107 255 0 255
36 0 108 255 0 255
36 0 109 255 0 255
36 0 110 255 0 255
36 0 111 75 0 75
36 0 112 75 0 75
36 0 113 75 0 75
36 0 114 75 0 75
36 0 115 75 0 75
36 0 116 75 0 75
36 0 117 75 0 75
36 0 118 75 0 75
36 0 119 75 0 75
36 0 120 75 0 75
36 0 121 75 0 75
36 0 122 75 0 75
36 0 123 75 0 75
36 0 124 75 0 75
36 0 125 255 120 50
36 0 126 255 120 50
36 1 70 255 120 50
36 1 71 255 120 50
36 1 72 0 175 0
36 1 73 0 175 0
36 1 74 0 175 0
36 1 75 0 175 0
36 1 76 0 175 0
36 1 77 0 175 0
36 1 78 0 175 0
36 1 79 0 175 0
36 1 80 0 175 0
36 1 81 0 175 0
36 1 82 0 175 0
36 1 124 255 120 50
36 1 125 255 120 50
36 1 126 255 120 50
36 1 127 255 120 50
36 2 70 255 120 50
36 2 71 255 120 50
36 2 72 0 175 0
36 2 73 0 175 0
36 2 74 0 175 0
36 2 75 0 175 0
36 2 76 0 175 0
36 2 77 0 175 0
36 2 78 0 175 0
36 2 79 0 175 0
36 2 80 0 175 0
36 2 81 0 175 0
36 2 82 0 175 0
36 2 85 150 240 80
36 2 125 255 120 50
36 2 126 255 120 50
36 2 127 255 120 50
36 3 69 255 120 50
36 3 70 255 120 50
36 3 71 255 120 50
36 3 72 0 175 0
36 3 73 0 175 0
36 3 74 0 175 0
36 3 75 0 175 0
36 3 76 0 175 0
36 3 77 0 175 0
36 3 78 0 175 0
36 3 79 0 175 0
36 3 80 0 175 0
36 3 81 0 175 0
36 3 82 0 175 0
36 3 83 0 175 0
36 3 126 255 120 50
36 4 70 255 120 50
36 4 71 255 120 50
36 4 72 255 120 50
36 4 73 0 175 0
36 4 74 0 175 0
36 4 75 0 175 0
36 4 76 0 175 0
36 4 77 0 175 0
36 4 78 0 175 0
36 4 79 0 175 0
36 4 80 0 175 0
36 4 81 0 175 0
36 4 82 0 175 0
36 4 83 0 175 0
36 4 84 0 175 0
36 5 70 255 120 50
36 5 71 255 120 50
36 5 72 255 120 50
36 5 73 0 175 0
36 5 74 0 175 0
36 5 75 0 175 0
36 5 76 0 175 0
36 5 77 0 175 0
36 5 78 0 175 0
36 5 79 0 175 0
36 5 80 0 175 0
36 5 81 0 175 0
36 5 82 0 175 0
36 5 83 0 175 0
36 5 84 0 175 0
36 6 71 255 120 50
36 6 78 0 175 0
36 6 79 0 175 0
36 6 80 0 175 0
36 6 83 0 175 0
36 7 78 0 175 0
36 7 79 0 175 0
36 7 80 0 175 0
36 7 81 0 175 0
36 7 82 0 175 0
36 8 76 0 175 0
36 8 77 0 175 0
36 8 78 0 175 0
36 8 79 0 175 0
36 8 80 0 175 0
36 9 78 0 175 0
36 10 71 255 120 50
36 10 72 0 175 0
36 10 80 0 175 0
37 0 71 255 120 50
37 0 72 255 120 50
37 0 73 255 120 50
37 0 74 0 175 0
37 0 75 0 175 0
37 0 76 0 175 0
37 0 77 0 175 0
37 0 78 0 175 0
37 0 79 0 175 0
37 0 80 0 175 0
37 0 81 0 175 0
37 0 82 0 175 0
37 0 83 150 240 80
37 0 84 150 240 80
37 0 85 150 240 80
37 0 86 150 240 80
37 0 87 150 240 80
37 0 88 255 0 255
37 0 89 255 0 255
37 0 90 255 0 255
37 0 91 255 0 255
37 0 92 255 0 255
37 0 93 255 0 255
37 0 94 255 0 255
37 0 95 255 0 255
37 0 96 255 0 255
37 0 97 255 0 255
37 0 98 255 0 255
37 0 99 255 0 255
37 0 100 255 0 255
37 0 101 255 0 255
37 0 102 255 0 255
37 0 103 255 0 255
37 0 104 255 0 255
37 0 105 255 0 255
37 0 106 255 0 255
37 0 107 255 0 255
37 0 108 255 0 255
37 0 109 255 0 255
37 0 110 255 0 255
37 0 111 255 0 255
37 0 112 255 0 255
37 0 113 75 0 75
37 0 114 75 0 75
37 0 115 75 0 75
37 0 116 75 0 75
37 0 117 75 0 75
37 0 118 75 0 75
37 0 119 75 0 75
37 0 120 75 0 75
37 0 121 75 0 75
37 0 122 75 0 75
37 0 123 75 0 75
37 0 124 75 0 75
37 0 125 75 0 75
37 0 126 75 0 75
37 0 127 255 120 50
37 1 71 255 120 50
37 1 72 255 120 50
37 1 73 255 120 50
37 1 74 0 175 0
37 1 75 0 175 0
37 1 76 0 175 0
37 1 77 0 175 0
37 1 78 0 175 0
37 1 79 0 175 0
37 1 80 0 175 0
37 1 81 0 175 0
37 1 82 0 175 0
37 1 83 0 175 0
37 1 84 0 175 0
37 1 126 255 120 50
37 1 127 255 120 50
37 2 71 255 120 50
37 2 72 255 120 50
37 2 73 255 120 50
37 2 74 0 175 0
37 2 75 0 175 0
37 2 76 0 175 0
37 2 77 0 175 0
37 2 78 0 175 0
37 2 79 0 175 0
37 2 80 0 175 0
37 2 81 0 175 0
37 2 82 0 175 0
37 2 83 0 175 0
37 2 126 255 120 50
37 2 127 255 120 50
37 3 71 255 120 50
37 3 72 255 120 50
37 3 73 255 120 50
37 3 74 0 175 0
37 3 75 0 175 0
37 3 76 0 175 0
37 3 77 0 175 0
37 3 78 0 175 0
37 3 79 0 175 0
37 3 80 0 175 0
37 3 81 0 175 0
37 3 82 0 175 0
37 3 83 0 175 0
37 3 85 0 175 0
37 4 70 255 120 50
37 4 71 255 120 50
37 4 72 255 120 50
37 4 73 255 120 50
37 4 74 0 175 0
37 4 75 0 175 0
37 4 76 0 175 0
37 4 77 0 175 0
37 4 78 0 175 0
37 4 79 0 175 0
37 4 80 0 175 0
37 4 81 0 175 0
37 4 82 0 175 0
37 4 83 0 175 0
37 4 84 0 175 0
37 4 85 0 175 0
37 5 71 255 120 50
37 5 72 255 120 50
37 5 73 255 120 50
37 5 74 0 175 0
37 5 75 0 175 0
37 5 76 0 175 0
37 5 77 0 175 0
37 5 78 0 175 0
37 5 79 0 175 0
37 5 80 0 175 0
37 5 81 0 175 0
37 5 82 0 175 0
37 5 83 0 175 0
37 5 84 0 175 0
37 6 72 255 120 50
37 6 73 255 120 50
37 6 78 0 175 0
37 6 79 0 175 0
37 6 80 0 175 0
37 6 81 0 175 0
37 6 82 0 175 0
37 6 83 0 175 0
37 7 79 0 175 0
37 7 80 0 175 0
37 7 81 0 175 0
37 8 79 0 175 0
37 8 80 0 175 0
37 9 78 0 175 0
37 9 79 0 175 0
37 9 80 0 175 0
38 0 72 255 120 50
38 0 73 255 120 50
38 0 74 255 120 50
38 0 76 0 175 0
38 0 77 0 175 0
38 0 78 0 175 0
38 0 79 0 175 0
38 0 80 0 175 0
38 0 81 0 175 0
38 0 82 0 175 0
38 0 83 0 175 0
38 0 84 150 240 80
38 0 85 150 240 80
38 0 86 150 240 80
38 0 87 150 240 80
38 0 88 150 240 80
38 0 89 255 0 255
38 0 90 255 0 255
38 0 91 255 0 255
38 0 92 255 0 255
38 0 93 255 0 255
38 0 94 255 0 255
38 0 95 255 0 255
38 0 96 255 0 255
38 0 97 255 0 255
38 0 98 255 0 255
38 0 99 255 0 255
38 0 100 255 0 255
38 0 101 255 0 255
38 0 102 255 0 255
38 0 103 255 0 255
38 0 104 255 0 255
38 0 105 255 0 255
38 0 106 255 0 255
38 0 107 255 0 255
38 0 108 255 0 255
38 0 109 255 0 255
38 0 110 255 0 255
38 0 111 255 0 255
38 0 112 255 0 255
38 0 113 255 0 255
38 0 114 75 0 75
38 0 115 75 0 75
38 0 116 75 0 75
38 0 117 75 0 75
38 0 118 75 0 75
38 0 119 100 150 245
38 0 120 75 0 75
38 0 121 75 0 75
38 0 122 75 0 75
38 0 123 75 0 75
38 0 124 75 0 75
38 0 125 75 0 75
38 0 126 75 0 75
38 0 127 75 0 75
38 1 72 255 120 50
38 1 73 255 120 50
38 1 74 255 120 50
38 1 75 0 175 0
38 1 76 0 175 0
38 1 77 0 175 0
38 1 78 0 175 0
38 1 79 0 175 0
38 1 80 0 175 0
38 1 81 0 175 0
38 1 82 0 175 0
38 1 83 0 175 0
38 1 84 0 175 0
38 1 101 255 0 255
38 1 103 255 0 255
38 1 118 100 150 245
38 1 119 100 150 245
38 1 127 255 120 50
38 2 73 255 120 50
38 2 74 255 120 50
38 2 75 255 120 50
38 2 76 0 175 0
38 2 77 0 175 0
38 2 78 0 175 0
38 2 79 0 175 0
38 2 80 0 175 0
38 2 81 0 175 0
38 2 82 0 175 0
38 2 83 0 175 0
38 2 84 0 175 0
38 2 118 100 150 245
38 2 119 100 150 245
38 3 73 255 120 50
38 3 74 255 120 50
38 3 75 0 175 0
38 3 76 0 175 0
38 3 77 0 175 0
38 3 78 0 175 0
38 3 79 0 175 0
38 3 80 0 175 0
38 3 81 0 175 0
38 3 82 0 175 0
38 3 83 0 175 0
38 3 84 0 175 0
38 3 85 0 175 0
38 3 118 100 150 245
38 4 72 255 120 50
38 4 73 255 120 50
38 4 74 255 120 50
38 4 75 0 175 0
38 4 76 0 175 0
38 4 77 0 175 0
38 4 78 0 175 0
38 4 79 0 175 0
38 4 80 0 175 0
38 4 81 0 175 0
38 4 82 0 175 0
38 4 83 0 175 0
38 4 84 0 175 0
38 4 85 0 175 0
38 5 73 255 120 50
38 5 74 255 120 50
38 5 75 0 175 0
38 5 76 0 175 0
38 5 77 0 175 0
38 5 78 0 175 0
38 5 79 0 175 0
38 5 80 0 175 0
38 5 81 0 175 0
38 5 82 0 175 0
38 5 83 0 175 0
38 5 84 0 175 0
38 5 85 0 175 0
38 5 86 0 175 0
38 6 81 0 175 0
38 6 82 0 175 0
38 6 83 0 175 0
38 6 84 0 175 0
38 6 85 0 175 0
38 6 86 0 175 0
38 7 80 0 175 0
38 7 81 0 175 0
38 7 82 0 175 0
38 7 83 0 175 0
38 7 84 0 175 0
38 7 85 0 175 0
38 8 79 0 175 0
38 8 80 0 175 0
38 8 81 0 175 0
38 9 78 0 175 0
38 9 79 0 175 0
38 9 80 0 175 0
38 10 79 0 175 0
39 0 74 255 120 50
39 0 75 255 120 50
39 0 76 255 120 50
39 0 77 0 175 0
39 0 78 0 175 0
39 0 79 0 175 0
39 0 80 0 175 0
39 0 81 0 175 0
39 0 82 0 175 0
39 0 83 0 175 0
39 0 84 0 175 0
39 0 85 150 240 80
39 0 86 150 240 80
39 0 87 150 240 80
39 0 88 150 240 80
39 0 89 150 240 80
39 0 90 150 240 80
39 0 91 255 0 255
39 0 92 255 0 255
39 0 93 255 0 255
39 0 94 255 0 255
39 0 95 255 0 255
39 0 96 255 0 255
39 0 97 255 0 255
39 0 98 255 0 255
39 0 99 255 0 255
39 0 100 255 0 255
39 0 101 255 0 255
39 0 102 255 0 255
39 0 103 255 0 255
39 0 104 255 0 255
39 0 105 255 0 255
39 0 106 255 0 255
39 0 107 255 0 255
39 0 108 255 0 255
39 0 109 255 0 255
39 0 110 255 0 255
39 0 111 255 0 255
39 0 112 255 0 255
39 0 113 255 0 255
39 0 114 255 0 255
39 0 115 255 0 255
39 0 116 75 0 75
39 0 117 75 0 75
39 0 118 75 0 75
39 0 119 100 150 245
39 0 120 100 150 245
39 0 121 75 0 75
39 0 122 75 0 75
39 0 123 75 0 75
39 0 124 75 0 75
39 0 125 75 0 75
39 0 126 75 0 75
39 0 127 75 0 75
39 1 74 255 120 50
39 1 75 255 120 50
39 1 76 0 175 0
39 1 77 0 175 0
39 1 78 0 175 0
39 1 79 0 175 0
39 1 80 0 175 0
39 1 81 0 175 0
39 1 82 0 175 0
39 1 83 0 175 0
39 1 84 0 175 0
39 1 99 255 0 255
39 1 101 255 0 255
39 1 103 255 0 255
39 1 117 100 150 245
39 1 118 100 150 245
39 1 119 100 150 245
39 1 120 100 150 245
39 1 121 100 150 245
39 2 74 255 120 50
39 2 75 255 120 50
39 2 76 0 175 0
39 2 77 0 175 0
39 2 78 0 175 0
39 2 79 0 175 0
39 2 80 0 175 0
39 2 81 0 175 0
39 2 82 0 175 0
39 2 83 0 175 0
39 2 84 0 175 0
39 2 85 0 175 0
39 2 117 100 150 245
39 2 118 100 150 245
39 2 119 100 150 245
39 2 120 100 150 245
39 2 121 100 150 245
39 3 74 255 120 50
39 3 75 255 120 50
39 3 76 0 175 0
39 3 77 0 175 0
39 3 78 0 175 0
39 3 79 0 175 0
39 3 80 0 175 0
39 3 81 0 175 0
39 3 82 0 175 0
39 3 83 0 175 0
39 3 84 0 175 0
39 3 85 0 175 0
39 3 117 100 150 245
39 3 118 100 150 245
39 3 119 100 150 245
39 3 120 100 150 245
39 3 121 100 150 245
39 4 73 255 120 50
39 4 74 255 120 50
39 4 75 255 120 50
39 4 76 0 175 0
39 4 77 0 175 0
39 4 78 0 175 0
39 4 79 0 175 0
39 4 80 0 175 0
39 4 81 0 175 0
39 4 82 0 175 0
39 4 83 0 175 0
39 4 84 0 175 0
39 4 85 0 175 0
39 4 86 0 175 0
39 4 87 0 175 0
39 4 88 0 175 0
39 4 119 100 150 245
39 4 120 100 150 245
39 5 73 255 120 50
39 5 74 255 120 50
39 5 75 255 120 50
39 5 76 0 175 0
39 5 77 0 175 0
39 5 78 0 175 0
39 5 79 0 175 0
39 5 80 0 175 0
39 5 81 0 175 0
39 5 82 0 175 0
39 5 83 0 175 0
39 5 84 0 175 0
39 5 85 0 175 0
39 5 86 0 175 0
39 6 79 0 175 0
39 6 81 0 175 0
39 6 82 0 175 0
39 6 83 0 175 0
39 6 84 0 175 0
39 6 85 0 175 0
39 6 86 0 175 0
39 6 87 0 175 0
39 7 81 0 175 0
39 7 82 0 175 0
39 7 83 0 175 0
39 7 84 0 175 0
39 7 85 0 175 0
39 7 86 0 175 0
39 7 87 0 175 0
39 8 78 0 175 0
39 8 79 0 175 0
39 8 80 0 175 0
39 9 75 255 120 50
39 9 78 0 175 0
39 9 79 0 175 0
40 0 75 255 120 50
40 0 76 255 120 50
40 0 77 255 120 50
40 0 78 0 175 0
40 0 79 0 175 0
40 0 80 0 175 0
40 0 81 0 175 0
40 0 82 0 175 0
40 0 83 0 175 0
40 0 84 0 175 0
40 0 85 0 175 0
40 0 86 150 240 80
40 0 87 150 240 80
40 0 88 150 240 80
40 0 89 150 240 80
40 0 90 150 240 80
40 0 91 150 240 80
40 0 92 255 0 255
40 0 93 255 0 255
40 0 94 255 0 255
40 0 95 255 0 255
40 0 96 255 0 255
40 0 97 255 0 255
40 0 98 255 0 255
40 0 99 255 0 255
40 0 100 255 0 255
40 0 101 255 0 255
40 0 102 255 0 255
40 0 103 255 0 255
40 0 104 255 0 255
40 0 105 255 0 255
40 0 106 255 0 255
40 0 107 255 0 255
40 0 108 255 0 255
40 0 109 255 0 255
40 0 110 255 0 255
40 0 111 255 0 255
40 0 112 255 0 255
40 0 113 255 0 255
40 0 114 255 0 255
40 0 115 255 0 255
40 0 116 255 0 255
40 0 117 75 0 75
40 0 118 75 0 75
40 0 119 75 0 75
40 0 120 75 0 75
40 0 121 75 0 75
40 0 122 75 0 75
40 0 123 75 0 75
40 0 124 75 0 75
40 0 125 75 0 75
40 0 126 75 0 75
40 0 127 75 0 75
40 1 75 255 120 50
40 1 76 255 120 50
40 1 77 255 120 50
40 1 78 0 175 0
40 1 79 0 175 0
40 1 80 0 175 0
40 1 81 0 175 0
40 1 82 0 175 0
40 1 83 0 175 0
40 1 84 0 175 0
40 1 85 0 175 0
40 1 86 0 175 0
40 1 88 150 240 80
40 1 102 255 0 255
40 1 116 100 150 245
40 1 117 100 150 245
40 1 118 100 150 245
40 2 74 255 120 50
40 2 75 255 120 50
40 2 76 255 120 50
40 2 77 255 120 50
40 2 78 0 175 0
40 2 79 0 175 0
40 2 80 0 175 0
40 2 81 0 175 0
40 2 82 0 175 0
40 2 83 0 175 0
40 2 84 0 175 0
40 2 85 0 175 0
40 2 88 0 175 0
40 2 89 0 175 0
40 2 116 100 150 245
40 2 117 100 150 245
40 2 118 100 150 245
40 2 120 100 150 245
40 2 121 100 150 245
40 3 75 255 120 50
40 3 76 255 120 50
40 3 77 255 120 50
40 3 78 0 175 0
40 3 79 0 175 0
40 3 80 0 175 0
40 3 81 0 175 0
40 3 82 0 175 0
40 3 83 0 175 0
40 3 84 0 175 0
40 3 85 0 175 0
40 3 86 0 175 0
40 3 87 0 175 0
40 3 117 100 150 245
40 3 118 100 150 245
40 3 119 100 150 245
40 3 120 100 150 245
40 3 121 100 150 245
40 3 122 100 150 245
40 4 74 255 120 50
40 4 75 255 120 50
40 4 76 255 120 50
40 4 77 0 175 0
40 4 78 0 175 0
40 4 79 0 175 0
40 4 80 0 175 0
40 4 81 0 175 0
40 4 82 0 175 0
40 4 83 0 175 0
40 4 84 0 175 0
40 4 85 0 175 0
40 4 86 0 175 0
40 4 87 0 175 0
40 4 88 0 175 0
40 4 119 100 150 245
40 4 120 100 150 245
40 4 121 100 150 245
40 4 122 100 150 245
40 5 75 255 120 50
40 5 76 255 120 50
40 5 77 255 120 50
40 5 78 0 175 0
40 5 79 0 175 0
40 5 80 0 175 0
40 5 81 0 175 0
40 5 82 0 175 0
40 5 83 0 175 0
40 5 84 0 175 0
40 5 85 0 175 0
40 5 86 0 175 0
40 5 87 0 175 0
40 5 120 100 150 245
40 5 121 100 150 245
40 5 122 100 150 245
40 6 76 255 120 50
40 6 80 0 175 0
