ply
format ascii 1.0
element vertex 172
property float x
property float y
property float z
property uchar red
property uchar green
property uchar blue
end_header
1 0 0 100 150 245
1 0 1 100 150 245
1 0 2 100 150 245
1 0 3 100 150 245
1 0 4 100 150 245
1 0 5 100 150 245
1 0 6 100 150 245
1 0 26 100 150 245
1 0 27 100 150 245
1 0 28 100 150 245
1 0 29 100 150 245
1 1 0 100 150 245
1 1 1 100 150 245
1 1 2 100 150 245
1 1 3 100 150 245
1 1 4 100 150 245
1 1 5 100 150 245
1 1 6 100 150 245
2 0 0 100 150 245
2 0 1 100 150 245
2 0 2 100 150 245
2 0 3 100 150 245
2 0 4 100 150 245
2 0 5 100 150 245
2 0 6 100 150 245
2 0 7 100 150 245
2 0 8 100 150 245
2 0 28 100 150 245
2 1 0 100 150 245
2 1 1 100 150 245
2 1 2 100 150 245
2 1 3 100 150 245
2 1 4 100 150 245
2 1 5 100 150 245
2 1 6 100 150 245
2 1 7 100 150 245
3 0 0 100 150 245
3 0 1 100 150 245
3 0 2 100 150 245
3 0 3 100 150 245
3 0 4 100 150 245
3 0 5 100 150 245
3 0 6 100 150 245
3 0 7 100 150 245
3 0 8 100 150 245
3 0 9 100 150 245
3 1 0 100 150 245
3 1 1 100 150 245
3 1 2 100 150 245
3 1 3 100 150 245
3 1 4 100 150 245
3 1 5 100 150 245
3 1 6 100 150 245
3 1 7 100 150 245
4 0 0 100 150 245
4 0 1 100 150 245
4 0 2 100 150 245
4 0 3 100 150 245
4 0 4 100 150 245
4 0 5 100 150 245
4 0 6 100 150 245
4 0 7 100 150 245
4 0 8 100 150 245
4 0 9 100 150 245
4 0 10 100 150 245
4 1 0 100 150 245
4 1 1 100 150 245
4 1 2 100 150 245
4 1 3 100 150 245
4 1 4 100 150 245
4 1 5 100 150 245
4 1 6 100 150 245
4 1 7 100 150 245
5 0 0 100 150 245
5 0 1 100 150 245
5 0 2 100 150 245
5 0 3 100 150 245
5 0 4 100 150 245
5 0 5 100 150 245
5 0 6 100 150 245
5 0 7 100 150 245
5 0 8 100 150 245
5 0 9 100 150 245
5 0 10 100 150 245
5 0 11 100 150 245
5 1 0 100 150 245
5 1 1 100 150 245
5 1 2 100 150 245
5 1 3 100 150 245
5 1 4 100 150 245
5 1 5 100 150 245
5 1 6 100 150 245
5 1 7 100 150 245
6 0 2 100 150 245
6 0 3 100 150 245
6 0 4 100 150 245
6 0 5 100 150 245
6 0 6 100 150 245
6 0 7 100 150 245
6 0 8 100 150 245
6 0 9 100 150 245
6 0 10 100 150 245
6 0 11 100 150 245
6 0 12 100 150 245
6 1 2 100 150 245
6 1 3 100 150 245
6 1 4 100 150 245
6 1 5 100 150 245
6 1 6 100 150 245
6 1 7 100 150 245
6 1 9 100 150 245
6 1 10 100 150 245
7 0 5 100 150 245
7 0 6 100 150 245
7 0 7 100 150 245
7 0 8 100 150 245
7 0 9 100 150 245
7 0 10 100 150 245
7 0 11 100 150 245
7 0 12 100 150 245
7 0 13 100 150 245
7 1 5 100 150 245
7 1 6 100 150 245
7 1 7 100 150 245
7 1 8 100 150 245
7 1 9 100 150 245
7 1 10 100 150 245
7 1 11 100 150 245
8 0 7 100 150 245
8 0 8 100 150 245
8 0 9 100 150 245
8 0 10 100 150 245
8 0 11 100 150 245
8 0 12 100 150 245
8 0 13 100 150 245
8 0 14 100 150 245
8 0 15 100 150 245
8 1 7 100 150 245
8 1 8 100 150 245
8 1 9 100 150 245
8 1 10 100 150 245
8 1 11 100 150 245
9 0 10 100 150 245
9 0 11 100 150 245
9 0 12 100 150 245
9 0 13 100 150 245
9 0 14 100 150 245
9 0 15 100 150 245
9 0 16 100 150 245
9 1 10 100 150 245
9 1 11 100 150 245
9 1 12 100 150 245
10 0 13 100 150 245
10 0 14 100 150 245
10 0 15 100 150 245
10 0 16 100 150 245
10 0 17 100 150 245
10 1 17 100 150 245
11 0 15 100 150 245
11 0 16 100 150 245
11 0 17 100 150 245
11 0 18 100 150 245
11 0 19 100 150 245
11 1 16 100 150 245
11 1 17 100 150 245
11 1 18 100 150 245
12 0 18 100 150 245
12 0 19 100 150 245
12 0 20 100 150 245
13 0 20 100 150 245
13 0 21 100 150 245
14 0 23 100 150 245
