ply
format ascii 1.0
element vertex 2411
property float x
property float y
property float z
property uchar red
property uchar green
property uchar blue
end_header
22 0 36 100 150 245
22 0 37 100 150 245
22 0 38 100 150 245
22 0 39 100 150 245
22 0 40 100 150 245
22 0 41 100 150 245
22 0 42 100 150 245
22 0 43 100 150 245
22 0 44 100 150 245
22 0 45 100 150 245
22 0 46 100 150 245
22 0 47 100 150 245
22 0 48 100 150 245
22 0 49 100 150 245
22 0 50 100 150 245
22 0 51 100 150 245
22 0 115 100 150 245
22 0 116 100 150 245
22 0 117 100 150 245
22 1 0 100 150 245
22 1 1 100 150 245
22 1 2 100 150 245
22 1 3 100 150 245
22 1 4 100 150 245
22 1 5 100 150 245
22 1 6 100 150 245
22 1 7 100 150 245
22 1 8 100 150 245
22 1 9 100 150 245
22 1 10 100 150 245
22 1 11 100 150 245
22 1 12 100 150 245
22 1 13 100 150 245
22 1 14 100 150 245
22 1 15 100 150 245
22 1 16 100 150 245
22 1 17 100 150 245
22 1 18 100 150 245
22 1 19 100 150 245
22 1 20 100 150 245
22 1 21 100 150 245
22 1 22 100 150 245
22 1 23 100 150 245
22 1 24 100 150 245
22 1 25 100 150 245
22 1 26 100 150 245
22 1 27 100 150 245
22 1 28 100 150 245
22 1 29 100 150 245
22 1 30 100 150 245
22 1 31 100 150 245
22 1 32 100 150 245
22 1 33 100 150 245
22 1 34 100 150 245
22 1 35 100 150 245
22 1 36 100 150 245
22 1 37 100 150 245
22 1 38 100 150 245
22 1 39 100 150 245
22 1 40 100 150 245
22 1 41 100 150 245
22 1 42 100 150 245
22 1 43 100 150 245
22 1 44 100 150 245
22 1 45 100 150 245
22 1 46 100 150 245
22 1 47 100 150 245
22 1 48 100 150 245
22 1 49 100 150 245
22 1 50 100 150 245
22 1 51 100 150 245
22 1 92 100 150 245
22 1 93 100 150 245
22 1 115 100 150 245
22 1 116 100 150 245
22 1 117 100 150 245
22 1 118 100 150 245
22 1 119 100 150 245
22 2 0 100 150 245
22 2 1 100 150 245
22 2 2 100 150 245
22 2 3 100 150 245
22 2 4 100 150 245
22 2 5 100 150 245
22 2 6 100 150 245
22 2 7 100 150 245
22 2 8 100 150 245
22 2 9 100 150 245
22 2 10 100 150 245
22 2 11 100 150 245
22 2 12 100 150 245
22 2 13 100 150 245
22 2 14 100 150 245
22 2 15 100 150 245
22 2 16 100 150 245
22 2 17 100 150 245
22 2 18 100 150 245
22 2 19 100 150 245
22 2 20 100 150 245
22 2 21 100 150 245
22 2 22 100 150 245
22 2 23 100 150 245
22 2 24 100 150 245
22 2 25 100 150 245
22 2 26 100 150 245
22 2 27 100 150 245
22 2 28 100 150 245
22 2 29 100 150 245
22 2 30 100 150 245
22 2 31 100 150 245
22 2 32 100 150 245
22 2 33 100 150 245
22 2 34 100 150 245
22 2 35 100 150 245
22 2 36 100 150 245
22 2 37 100 150 245
22 2 38 100 150 245
22 2 39 100 150 245
22 2 40 100 150 245
22 2 41 100 150 245
22 2 42 100 150 245
22 2 43 100 150 245
22 2 44 100 150 245
22 2 45 100 150 245
22 2 46 100 150 245
22 2 47 100 150 245
22 2 48 100 150 245
22 2 49 100 150 245
22 2 50 100 150 245
22 2 51 100 150 245
22 2 55 100 150 245
22 2 118 100 150 245
22 3 0 100 150 245
22 3 1 100 150 245
22 3 2 100 150 245
22 3 3 100 150 245
22 3 4 100 150 245
22 3 5 100 150 245
22 3 6 100 150 245
22 3 7 100 150 245
22 3 8 100 150 245
22 3 9 100 150 245
22 3 10 100 150 245
22 3 11 100 150 245
22 3 12 100 150 245
22 3 13 100 150 245
22 3 14 100 150 245
22 3 15 100 150 245
22 3 16 100 150 245
22 3 17 100 150 245
22 3 18 100 150 245
22 3 19 100 150 245
22 3 20 100 150 245
22 3 21 100 150 245
22 3 22 100 150 245
22 3 23 100 150 245
22 3 24 100 150 245
22 3 25 100 150 245
22 3 26 100 150 245
22 3 27 100 150 245
22 3 28 100 150 245
22 3 29 100 150 245
22 3 30 100 150 245
22 3 31 100 150 245
22 3 32 100 150 245
22 3 33 100 150 245
22 3 34 100 150 245
22 3 35 100 150 245
22 3 36 100 150 245
22 3 37 100 150 245
22 3 38 100 150 245
22 3 39 100 150 245
22 3 40 100 150 245
22 3 41 100 150 245
22 3 42 100 150 245
22 3 43 100 150 245
22 3 44 100 150 245
22 3 45 100 150 245
22 3 46 100 150 245
22 3 47 100 150 245
22 3 48 100 150 245
22 3 49 100 150 245
22 3 50 100 150 245
22 3 51 100 150 245
22 4 0 100 150 245
22 4 1 100 150 245
22 4 2 100 150 245
22 4 3 100 150 245
22 4 4 100 150 245
22 4 5 100 150 245
22 4 6 100 150 245
22 4 7 100 150 245
22 4 8 100 150 245
22 4 9 100 150 245
22 4 10 100 150 245
22 4 11 100 150 245
22 4 12 100 150 245
22 4 13 100 150 245
22 4 14 100 150 245
22 4 15 100 150 245
22 4 16 100 150 245
22 4 17 100 150 245
22 4 18 100 150 245
22 4 19 100 150 245
22 4 20 100 150 245
22 4 21 100 150 245
22 4 22 100 150 245
22 4 23 100 150 245
22 4 24 100 150 245
22 4 25 100 150 245
22 4 26 100 150 245
22 4 27 100 150 245
22 4 28 100 150 245
22 4 29 100 150 245
22 4 30 100 150 245
22 4 31 100 150 245
22 4 32 100 150 245
22 4 33 100 150 245
22 4 34 100 150 245
22 4 35 100 150 245
22 4 36 100 150 245
22 4 37 100 150 245
22 4 38 100 150 245
22 4 39 100 150 245
22 4 40 100 150 245
22 4 41 100 150 245
22 4 42 100 150 245
22 4 43 100 150 245
22 4 44 100 150 245
22 4 45 100 150 245
22 4 46 100 150 245
22 4 47 100 150 245
22 4 48 100 150 245
22 4 49 100 150 245
22 4 50 100 150 245
22 4 51 100 150 245
22 5 0 100 150 245
22 5 1 100 150 245
22 5 2 100 150 245
22 5 3 100 150 245
22 5 4 100 150 245
22 5 5 100 150 245
22 5 6 100 150 245
22 5 7 100 150 245
22 5 8 100 150 245
22 5 9 100 150 245
22 5 10 100 150 245
22 5 11 100 150 245
22 5 12 100 150 245
22 5 13 100 150 245
22 5 14 100 150 245
22 5 15 100 150 245
22 5 16 100 150 245
22 5 17 100 150 245
22 5 18 100 150 245
22 5 19 100 150 245
22 5 20 100 150 245
22 5 21 100 150 245
22 5 22 100 150 245
22 5 23 100 150 245
22 5 24 100 150 245
22 5 25 100 150 245
22 5 26 100 150 245
22 5 27 100 150 245
22 5 28 100 150 245
22 5 29 100 150 245
22 5 30 100 150 245
22 5 31 100 150 245
22 5 32 100 150 245
22 5 33 100 150 245
22 5 34 100 150 245
22 5 35 100 150 245
22 5 36 100 150 245
22 5 37 100 150 245
22 5 38 100 150 245
22 5 39 100 150 245
22 5 40 100 150 245
22 5 41 100 150 245
22 5 42 100 150 245
22 5 43 100 150 245
22 5 44 100 150 245
22 5 45 100 150 245
22 5 46 100 150 245
22 5 47 100 150 245
22 5 48 100 150 245
22 5 49 100 150 245
22 5 50 100 150 245
22 5 51 100 150 245
22 6 0 100 150 245
22 6 1 100 150 245
22 6 2 100 150 245
22 6 3 100 150 245
22 6 4 100 150 245
22 6 5 100 150 245
22 6 6 100 150 245
22 6 7 100 150 245
22 6 8 100 150 245
22 6 9 100 150 245
22 6 10 100 150 245
22 6 11 100 150 245
22 6 12 100 150 245
22 6 13 100 150 245
22 6 14 100 150 245
22 6 15 100 150 245
22 6 16 100 150 245
22 6 17 100 150 245
22 6 18 100 150 245
22 6 19 100 150 245
22 6 20 100 150 245
22 6 21 100 150 245
22 6 22 100 150 245
22 6 23 100 150 245
22 6 24 100 150 245
22 6 25 100 150 245
22 6 26 100 150 245
22 6 27 100 150 245
22 6 28 100 150 245
22 6 29 100 150 245
22 6 30 100 150 245
22 6 31 100 150 245
22 6 32 100 150 245
22 6 33 100 150 245
22 6 34 100 150 245
22 6 35 100 150 245
22 6 36 100 150 245
22 6 37 100 150 245
22 6 38 100 150 245
22 6 39 100 150 245
22 6 40 100 150 245
22 6 41 100 150 245
22 6 42 100 150 245
22 6 43 100 150 245
22 6 44 100 150 245
22 6 45 100 150 245
22 6 46 100 150 245
22 6 47 100 150 245
22 6 48 100 150 245
22 6 49 100 150 245
22 6 50 100 150 245
22 6 51 100 150 245
22 6 52 100 150 245
22 6 53 100 150 245
22 7 0 100 150 245
22 7 1 100 150 245
22 7 2 100 150 245
22 7 3 100 150 245
22 7 4 100 150 245
22 7 5 100 150 245
22 7 6 100 150 245
22 7 7 100 150 245
22 7 8 100 150 245
22 7 9 100 150 245
22 7 10 100 150 245
22 7 11 100 150 245
22 7 12 100 150 245
22 7 13 100 150 245
22 7 14 100 150 245
22 7 15 100 150 245
22 7 16 100 150 245
22 7 17 100 150 245
22 7 18 100 150 245
22 7 19 100 150 245
22 7 20 100 150 245
22 7 21 100 150 245
22 7 22 100 150 245
22 7 23 100 150 245
22 7 24 100 150 245
22 7 25 100 150 245
22 7 26 100 150 245
22 7 27 100 150 245
22 7 28 100 150 245
22 7 29 100 150 245
22 7 30 100 150 245
22 7 31 100 150 245
22 7 32 100 150 245
22 7 34 100 150 245
22 7 36 100 150 245
22 7 37 100 150 245
22 7 38 100 150 245
22 7 39 100 150 245
22 7 40 100 150 245
22 7 41 100 150 245
22 8 0 100 150 245
22 8 1 100 150 245
22 8 2 100 150 245
22 8 3 100 150 245
22 8 4 100 150 245
22 8 5 100 150 245
22 8 6 100 150 245
22 8 7 100 150 245
22 8 8 100 150 245
22 8 9 100 150 245
22 8 10 100 150 245
22 8 11 100 150 245
22 8 12 100 150 245
22 8 13 100 150 245
22 8 14 100 150 245
22 8 15 100 150 245
22 8 16 100 150 245
22 8 17 100 150 245
22 8 18 100 150 245
22 8 19 100 150 245
22 8 20 100 150 245
22 8 21 100 150 245
22 8 22 100 150 245
22 8 23 100 150 245
22 8 24 100 150 245
22 8 25 100 150 245
22 8 26 100 150 245
22 9 0 100 150 245
22 9 1 100 150 245
22 9 2 100 150 245
22 9 3 100 150 245
22 9 4 100 150 245
22 9 5 100 150 245
22 9 6 100 150 245
22 9 7 100 150 245
22 9 11 100 150 245
22 9 12 100 150 245
22 9 13 100 150 245
22 9 14 100 150 245
22 9 15 100 150 245
22 9 16 100 150 245
22 9 21 100 150 245
22 10 15 100 150 245
23 0 0 100 150 245
23 0 1 100 150 245
23 0 2 100 150 245
23 0 3 100 150 245
23 0 4 100 150 245
23 0 5 100 150 245
23 0 6 100 150 245
23 0 7 100 150 245
23 0 8 100 150 245
23 0 9 100 150 245
23 0 10 100 150 245
23 0 11 100 150 245
23 0 12 100 150 245
23 0 13 100 150 245
23 0 14 100 150 245
23 0 15 100 150 245
23 0 16 100 150 245
23 0 17 100 150 245
23 0 18 100 150 245
23 0 19 100 150 245
23 0 20 100 150 245
23 0 21 100 150 245
23 0 22 100 150 245
23 0 23 100 150 245
23 0 24 100 150 245
23 0 25 100 150 245
23 0 26 100 150 245
23 0 27 100 150 245
23 0 28 100 150 245
23 0 29 100 150 245
23 0 30 100 150 245
23 0 31 100 150 245
23 0 32 100 150 245
23 0 33 100 150 245
23 0 34 100 150 245
23 0 35 100 150 245
23 0 36 100 150 245
23 0 37 100 150 245
23 0 38 100 150 245
23 0 39 100 150 245
23 0 40 100 150 245
23 0 41 100 150 245
23 0 42 100 150 245
23 0 43 100 150 245
23 0 44 100 150 245
23 0 45 100 150 245
23 0 46 100 150 245
23 0 47 100 150 245
23 0 48 100 150 245
23 0 49 100 150 245
23 0 50 100 150 245
23 0 51 100 150 245
23 0 52 100 150 245
23 0 57 100 150 245
23 0 58 100 150 245
23 0 116 100 150 245
23 0 117 100 150 245
23 0 118 100 150 245
23 1 0 100 150 245
23 1 1 100 150 245
23 1 2 100 150 245
23 1 3 100 150 245
23 1 4 100 150 245
23 1 5 100 150 245
23 1 6 100 150 245
23 1 7 100 150 245
23 1 8 100 150 245
23 1 9 100 150 245
23 1 10 100 150 245
23 1 11 100 150 245
23 1 12 100 150 245
23 1 13 100 150 245
23 1 14 100 150 245
23 1 15 100 150 245
23 1 16 100 150 245
23 1 17 100 150 245
23 1 18 100 150 245
23 1 19 100 150 245
23 1 20 100 150 245
23 1 21 100 150 245
23 1 22 100 150 245
23 1 23 100 150 245
23 1 24 100 150 245
23 1 25 100 150 245
23 1 26 100 150 245
23 1 27 100 150 245
23 1 28 100 150 245
23 1 29 100 150 245
23 1 30 100 150 245
23 1 31 100 150 245
23 1 32 100 150 245
23 1 33 100 150 245
23 1 34 100 150 245
23 1 35 100 150 245
23 1 36 100 150 245
23 1 37 100 150 245
23 1 38 100 150 245
23 1 39 100 150 245
23 1 40 100 150 245
23 1 41 100 150 245
23 1 42 100 150 245
23 1 43 100 150 245
23 1 44 100 150 245
23 1 45 100 150 245
23 1 46 100 150 245
23 1 47 100 150 245
23 1 48 100 150 245
23 1 49 100 150 245
23 1 50 100 150 245
23 1 51 100 150 245
23 1 52 100 150 245
23 1 53 100 150 245
23 1 56 100 150 245
23 1 91 100 150 245
23 1 92 100 150 245
23 1 93 100 150 245
23 1 115 100 150 245
23 1 116 100 150 245
23 1 117 100 150 245
23 1 118 100 150 245
23 1 119 100 150 245
23 1 120 100 150 245
23 2 0 100 150 245
23 2 1 100 150 245
23 2 2 100 150 245
23 2 3 100 150 245
23 2 4 100 150 245
23 2 5 100 150 245
23 2 6 100 150 245
23 2 7 100 150 245
23 2 8 100 150 245
23 2 9 100 150 245
23 2 10 100 150 245
23 2 11 100 150 245
23 2 12 100 150 245
23 2 13 100 150 245
23 2 14 100 150 245
23 2 15 100 150 245
23 2 16 100 150 245
23 2 17 100 150 245
23 2 18 100 150 245
23 2 19 100 150 245
23 2 20 100 150 245
23 2 21 100 150 245
23 2 22 100 150 245
23 2 23 100 150 245
23 2 24 100 150 245
23 2 25 100 150 245
23 2 26 100 150 245
23 2 27 100 150 245
23 2 28 100 150 245
23 2 29 100 150 245
23 2 30 100 150 245
23 2 31 100 150 245
23 2 32 100 150 245
23 2 33 100 150 245
23 2 34 100 150 245
23 2 35 100 150 245
23 2 36 100 150 245
23 2 37 100 150 245
23 2 38 100 150 245
23 2 39 100 150 245
23 2 40 100 150 245
23 2 41 100 150 245
23 2 42 100 150 245
23 2 43 100 150 245
23 2 44 100 150 245
23 2 45 100 150 245
23 2 46 100 150 245
23 2 47 100 150 245
23 2 48 100 150 245
23 2 49 100 150 245
23 2 50 100 150 245
23 2 51 100 150 245
23 2 52 100 150 245
23 2 56 100 150 245
23 2 57 100 150 245
23 2 92 100 150 245
23 2 114 100 150 245
23 3 0 100 150 245
23 3 1 100 150 245
23 3 2 100 150 245
23 3 3 100 150 245
23 3 4 100 150 245
23 3 5 100 150 245
23 3 6 100 150 245
23 3 7 100 150 245
23 3 8 100 150 245
23 3 9 100 150 245
23 3 10 100 150 245
23 3 11 100 150 245
23 3 12 100 150 245
23 3 13 100 150 245
23 3 14 100 150 245
23 3 15 100 150 245
23 3 16 100 150 245
23 3 17 100 150 245
23 3 18 100 150 245
23 3 19 100 150 245
23 3 20 100 150 245
23 3 21 100 150 245
23 3 22 100 150 245
23 3 23 100 150 245
23 3 24 100 150 245
23 3 25 100 150 245
23 3 26 100 150 245
23 3 27 100 150 245
23 3 28 100 150 245
23 3 29 100 150 245
23 3 30 100 150 245
23 3 31 100 150 245
23 3 32 100 150 245
23 3 33 100 150 245
23 3 34 100 150 245
23 3 35 100 150 245
23 3 36 100 150 245
23 3 37 100 150 245
23 3 38 100 150 245
23 3 39 100 150 245
23 3 40 100 150 245
23 3 41 100 150 245
23 3 42 100 150 245
23 3 43 100 150 245
23 3 44 100 150 245
23 3 45 100 150 245
23 3 46 100 150 245
23 3 47 100 150 245
23 3 48 100 150 245
23 3 49 100 150 245
23 3 50 100 150 245
23 3 51 100 150 245
23 3 52 100 150 245
23 3 58 100 150 245
23 4 0 100 150 245
23 4 1 100 150 245
23 4 2 100 150 245
23 4 3 100 150 245
23 4 4 100 150 245
23 4 5 100 150 245
23 4 6 100 150 245
23 4 7 100 150 245
23 4 8 100 150 245
23 4 9 100 150 245
23 4 10 100 150 245
23 4 11 100 150 245
23 4 12 100 150 245
23 4 13 100 150 245
23 4 14 100 150 245
23 4 15 100 150 245
23 4 16 100 150 245
23 4 17 100 150 245
23 4 18 100 150 245
23 4 19 100 150 245
23 4 20 100 150 245
23 4 21 100 150 245
23 4 22 100 150 245
23 4 23 100 150 245
23 4 24 100 150 245
23 4 25 100 150 245
23 4 26 100 150 245
23 4 27 100 150 245
23 4 28 100 150 245
23 4 29 100 150 245
23 4 30 100 150 245
23 4 31 100 150 245
23 4 32 100 150 245
23 4 33 100 150 245
23 4 34 100 150 245
23 4 35 100 150 245
23 4 36 100 150 245
23 4 37 100 150 245
23 4 38 100 150 245
23 4 39 100 150 245
23 4 40 100 150 245
23 4 41 100 150 245
23 4 42 100 150 245
23 4 43 100 150 245
23 4 44 100 150 245
23 4 45 100 150 245
23 4 46 100 150 245
23 4 47 100 150 245
23 4 48 100 150 245
23 4 49 100 150 245
23 4 50 100 150 245
23 4 51 100 150 245
23 4 52 100 150 245
23 5 0 100 150 245
23 5 1 100 150 245
23 5 2 100 150 245
23 5 3 100 150 245
23 5 4 100 150 245
23 5 5 100 150 245
23 5 6 100 150 245
23 5 7 100 150 245
23 5 8 100 150 245
23 5 9 100 150 245
23 5 10 100 150 245
23 5 11 100 150 245
23 5 12 100 150 245
23 5 13 100 150 245
23 5 14 100 150 245
23 5 15 100 150 245
23 5 16 100 150 245
23 5 17 100 150 245
23 5 18 100 150 245
23 5 19 100 150 245
23 5 20 100 150 245
23 5 21 100 150 245
23 5 22 100 150 245
23 5 23 100 150 245
23 5 24 100 150 245
23 5 25 100 150 245
23 5 26 100 150 245
23 5 27 100 150 245
23 5 28 100 150 245
23 5 29 100 150 245
23 5 30 100 150 245
23 5 31 100 150 245
23 5 32 100 150 245
23 5 33 100 150 245
23 5 34 100 150 245
23 5 35 100 150 245
23 5 36 100 150 245
23 5 37 100 150 245
23 5 38 100 150 245
23 5 39 100 150 245
23 5 40 100 150 245
23 5 41 100 150 245
23 5 42 100 150 245
23 5 43 100 150 245
23 5 44 100 150 245
23 5 45 100 150 245
23 5 46 100 150 245
23 5 47 100 150 245
23 5 48 100 150 245
23 5 49 100 150 245
23 5 50 100 150 245
23 5 51 100 150 245
23 5 52 100 150 245
23 5 53 100 150 245
23 6 0 100 150 245
23 6 1 100 150 245
23 6 2 100 150 245
23 6 3 100 150 245
23 6 4 100 150 245
23 6 5 100 150 245
23 6 6 100 150 245
23 6 7 100 150 245
23 6 8 100 150 245
23 6 9 100 150 245
23 6 10 100 150 245
23 6 11 100 150 245
23 6 12 100 150 245
23 6 13 100 150 245
23 6 14 100 150 245
23 6 15 100 150 245
23 6 16 100 150 245
23 6 17 100 150 245
23 6 18 100 150 245
23 6 19 100 150 245
23 6 20 100 150 245
23 6 21 100 150 245
23 6 22 100 150 245
23 6 23 100 150 245
23 6 24 100 150 245
23 6 25 100 150 245
23 6 26 100 150 245
23 6 27 100 150 245
23 6 28 100 150 245
23 6 29 100 150 245
23 6 30 100 150 245
23 6 31 100 150 245
23 6 32 100 150 245
23 6 33 100 150 245
23 6 34 100 150 245
23 6 35 100 150 245
23 6 36 100 150 245
23 6 37 100 150 245
23 6 38 100 150 245
23 6 39 100 150 245
23 6 40 100 150 245
23 6 41 100 150 245
23 6 42 100 150 245
23 6 43 100 150 245
23 6 44 100 150 245
23 6 45 100 150 245
23 6 46 100 150 245
23 6 47 100 150 245
23 6 48 100 150 245
23 6 49 100 150 245
23 6 50 100 150 245
23 6 51 100 150 245
23 6 52 100 150 245
23 6 53 100 150 245
23 6 54 100 150 245
23 7 0 100 150 245
23 7 1 100 150 245
23 7 2 100 150 245
23 7 3 100 150 245
23 7 4 100 150 245
23 7 5 100 150 245
23 7 6 100 150 245
23 7 7 100 150 245
23 7 8 100 150 245
23 7 9 100 150 245
23 7 10 100 150 245
23 7 11 100 150 245
23 7 12 100 150 245
23 7 13 100 150 245
23 7 14 100 150 245
23 7 15 100 150 245
23 7 16 100 150 245
23 7 17 100 150 245
23 7 18 100 150 245
23 7 19 100 150 245
23 7 20 100 150 245
23 7 21 100 150 245
23 7 22 100 150 245
23 7 23 100 150 245
23 7 24 100 150 245
23 7 25 100 150 245
23 7 26 100 150 245
23 7 27 100 150 245
23 7 28 100 150 245
23 7 29 100 150 245
23 7 30 100 150 245
23 7 31 100 150 245
23 7 32 100 150 245
23 7 35 100 150 245
23 7 36 100 150 245
23 7 37 100 150 245
23 7 38 100 150 245
23 7 39 100 150 245
23 7 40 100 150 245
23 7 41 100 150 245
23 7 44 100 150 245
23 8 0 100 150 245
23 8 1 100 150 245
23 8 2 100 150 245
23 8 3 100 150 245
23 8 4 100 150 245
23 8 5 100 150 245
23 8 6 100 150 245
23 8 7 100 150 245
23 8 8 100 150 245
23 8 9 100 150 245
23 8 10 100 150 245
23 8 11 100 150 245
23 8 12 100 150 245
23 8 13 100 150 245
23 8 14 100 150 245
23 8 15 100 150 245
23 8 16 100 150 245
23 8 17 100 150 245
23 8 18 100 150 245
23 8 19 100 150 245
23 8 20 100 150 245
23 8 21 100 150 245
23 8 22 100 150 245
23 8 23 100 150 245
23 8 24 100 150 245
23 8 25 100 150 245
23 9 0 100 150 245
23 9 1 100 150 245
23 9 2 100 150 245
23 9 3 100 150 245
23 9 4 100 150 245
23 9 5 100 150 245
23 9 6 100 150 245
23 9 7 100 150 245
23 9 13 100 150 245
23 9 19 100 150 245
23 9 20 100 150 245
24 0 0 100 150 245
24 0 1 100 150 245
24 0 2 100 150 245
24 0 3 100 150 245
24 0 4 100 150 245
24 0 5 100 150 245
24 0 6 100 150 245
24 0 7 100 150 245
24 0 8 100 150 245
24 0 9 100 150 245
24 0 10 100 150 245
24 0 11 100 150 245
24 0 12 100 150 245
24 0 13 100 150 245
24 0 14 100 150 245
24 0 15 100 150 245
24 0 16 100 150 245
24 0 17 100 150 245
24 0 18 100 150 245
24 0 19 100 150 245
24 0 20 100 150 245
24 0 21 100 150 245
24 0 22 100 150 245
24 0 23 100 150 245
24 0 24 100 150 245
24 0 25 100 150 245
24 0 26 100 150 245
24 0 27 100 150 245
24 0 28 100 150 245
24 0 29 100 150 245
24 0 30 100 150 245
24 0 31 100 150 245
24 0 32 100 150 245
24 0 33 100 150 245
24 0 34 100 150 245
24 0 35 100 150 245
24 0 36 100 150 245
24 0 37 100 150 245
24 0 38 100 150 245
24 0 39 100 150 245
24 0 40 100 150 245
24 0 41 100 150 245
24 0 42 100 150 245
24 0 43 100 150 245
24 0 44 100 150 245
24 0 45 100 150 245
24 0 46 100 150 245
24 0 47 100 150 245
24 0 48 100 150 245
24 0 49 100 150 245
24 0 50 100 150 245
24 0 51 100 150 245
24 0 52 100 150 245
24 0 53 100 150 245
24 0 57 100 150 245
24 0 111 100 150 245
24 0 112 100 150 245
24 0 117 100 150 245
24 0 118 100 150 245
24 0 119 100 150 245
24 1 0 100 150 245
24 1 1 100 150 245
24 1 2 100 150 245
24 1 3 100 150 245
24 1 4 100 150 245
24 1 5 100 150 245
24 1 6 100 150 245
24 1 7 100 150 245
24 1 8 100 150 245
24 1 9 100 150 245
24 1 10 100 150 245
24 1 11 100 150 245
24 1 12 100 150 245
24 1 13 100 150 245
24 1 14 100 150 245
24 1 15 100 150 245
24 1 16 100 150 245
24 1 17 100 150 245
24 1 18 100 150 245
24 1 19 100 150 245
24 1 20 100 150 245
24 1 21 100 150 245
24 1 22 100 150 245
24 1 23 100 150 245
24 1 24 100 150 245
24 1 25 100 150 245
24 1 26 100 150 245
24 1 27 100 150 245
24 1 28 100 150 245
24 1 29 100 150 245
24 1 30 100 150 245
24 1 31 100 150 245
24 1 32 100 150 245
24 1 33 100 150 245
24 1 34 100 150 245
24 1 35 100 150 245
24 1 36 100 150 245
24 1 37 100 150 245
24 1 38 100 150 245
24 1 39 100 150 245
24 1 40 100 150 245
24 1 41 100 150 245
24 1 42 100 150 245
24 1 43 100 150 245
24 1 44 100 150 245
24 1 45 100 150 245
24 1 46 100 150 245
24 1 47 100 150 245
24 1 48 100 150 245
24 1 49 100 150 245
24 1 50 100 150 245
24 1 51 100 150 245
24 1 52 100 150 245
24 1 53 100 150 245
24 1 54 100 150 245
24 1 93 100 150 245
24 1 111 100 150 245
24 1 113 100 150 245
24 1 117 100 150 245
24 1 118 100 150 245
24 1 119 100 150 245
24 2 0 100 150 245
24 2 1 100 150 245
24 2 2 100 150 245
24 2 3 100 150 245
24 2 4 100 150 245
24 2 5 100 150 245
24 2 6 100 150 245
24 2 7 100 150 245
24 2 8 100 150 245
24 2 9 100 150 245
24 2 10 100 150 245
24 2 11 100 150 245
24 2 12 100 150 245
24 2 13 100 150 245
24 2 14 100 150 245
24 2 15 100 150 245
24 2 16 100 150 245
24 2 17 100 150 245
24 2 18 100 150 245
24 2 19 100 150 245
24 2 20 100 150 245
24 2 21 100 150 245
24 2 22 100 150 245
24 2 23 100 150 245
24 2 24 100 150 245
24 2 25 100 150 245
24 2 26 100 150 245
24 2 27 100 150 245
24 2 28 100 150 245
24 2 29 100 150 245
24 2 30 100 150 245
24 2 31 100 150 245
24 2 32 100 150 245
24 2 33 100 150 245
24 2 34 100 150 245
24 2 35 100 150 245
24 2 36 100 150 245
24 2 37 100 150 245
24 2 38 100 150 245
24 2 39 100 150 245
24 2 40 100 150 245
24 2 41 100 150 245
24 2 42 100 150 245
24 2 43 100 150 245
24 2 44 100 150 245
24 2 45 100 150 245
24 2 46 100 150 245
24 2 47 100 150 245
24 2 48 100 150 245
24 2 49 100 150 245
24 2 50 100 150 245
24 2 51 100 150 245
24 2 52 100 150 245
24 2 53 100 150 245
24 2 54 100 150 245
24 2 58 100 150 245
24 2 94 100 150 245
24 3 0 100 150 245
24 3 1 100 150 245
24 3 2 100 150 245
24 3 3 100 150 245
24 3 4 100 150 245
24 3 5 100 150 245
24 3 6 100 150 245
24 3 7 100 150 245
24 3 8 100 150 245
24 3 9 100 150 245
24 3 10 100 150 245
24 3 11 100 150 245
24 3 12 100 150 245
24 3 13 100 150 245
24 3 14 100 150 245
24 3 15 100 150 245
24 3 16 100 150 245
24 3 17 100 150 245
24 3 18 100 150 245
24 3 19 100 150 245
24 3 20 100 150 245
24 3 21 100 150 245
24 3 22 100 150 245
24 3 23 100 150 245
24 3 24 100 150 245
24 3 25 100 150 245
24 3 26 100 150 245
24 3 27 100 150 245
24 3 28 100 150 245
24 3 29 100 150 245
24 3 30 100 150 245
24 3 31 100 150 245
24 3 32 100 150 245
24 3 33 100 150 245
24 3 34 100 150 245
24 3 35 100 150 245
24 3 36 100 150 245
24 3 37 100 150 245
24 3 38 100 150 245
24 3 39 100 150 245
24 3 40 100 150 245
24 3 41 100 150 245
24 3 42 100 150 245
24 3 43 100 150 245
24 3 44 100 150 245
24 3 45 100 150 245
24 3 46 100 150 245
24 3 47 100 150 245
24 3 48 100 150 245
24 3 49 100 150 245
24 3 50 100 150 245
24 3 51 100 150 245
24 3 52 100 150 245
24 3 53 100 150 245
24 3 57 100 150 245
24 4 0 100 150 245
24 4 1 100 150 245
24 4 2 100 150 245
24 4 3 100 150 245
24 4 4 100 150 245
24 4 5 100 150 245
24 4 6 100 150 245
24 4 7 100 150 245
24 4 8 100 150 245
24 4 9 100 150 245
24 4 10 100 150 245
24 4 11 100 150 245
24 4 12 100 150 245
24 4 13 100 150 245
24 4 14 100 150 245
24 4 15 100 150 245
24 4 16 100 150 245
24 4 17 100 150 245
24 4 18 100 150 245
24 4 19 100 150 245
24 4 20 100 150 245
24 4 21 100 150 245
24 4 22 100 150 245
24 4 23 100 150 245
24 4 24 100 150 245
24 4 25 100 150 245
24 4 26 100 150 245
24 4 27 100 150 245
24 4 28 100 150 245
24 4 29 100 150 245
24 4 30 100 150 245
24 4 31 100 150 245
24 4 32 100 150 245
24 4 33 100 150 245
24 4 34 100 150 245
24 4 35 100 150 245
24 4 36 100 150 245
24 4 37 100 150 245
24 4 38 100 150 245
24 4 39 100 150 245
24 4 40 100 150 245
24 4 41 100 150 245
24 4 42 100 150 245
24 4 43 100 150 245
24 4 44 100 150 245
24 4 45 100 150 245
24 4 46 100 150 245
24 4 47 100 150 245
24 4 48 100 150 245
24 4 49 100 150 245
24 4 50 100 150 245
24 4 51 100 150 245
24 4 52 100 150 245
24 4 53 100 150 245
24 5 0 100 150 245
24 5 1 100 150 245
24 5 2 100 150 245
24 5 3 100 150 245
24 5 4 100 150 245
24 5 5 100 150 245
24 5 6 100 150 245
24 5 7 100 150 245
24 5 8 100 150 245
24 5 9 100 150 245
24 5 10 100 150 245
24 5 11 100 150 245
24 5 12 100 150 245
24 5 13 100 150 245
24 5 14 100 150 245
24 5 15 100 150 245
24 5 16 100 150 245
24 5 17 100 150 245
24 5 18 100 150 245
24 5 19 100 150 245
24 5 20 100 150 245
24 5 21 100 150 245
24 5 22 100 150 245
24 5 23 100 150 245
24 5 24 100 150 245
24 5 25 100 150 245
24 5 26 100 150 245
24 5 27 100 150 245
24 5 28 100 150 245
24 5 29 100 150 245
24 5 30 100 150 245
24 5 31 100 150 245
24 5 32 100 150 245
24 5 33 100 150 245
24 5 34 100 150 245
24 5 35 100 150 245
24 5 36 100 150 245
24 5 37 100 150 245
24 5 38 100 150 245
24 5 39 100 150 245
24 5 40 100 150 245
24 5 41 100 150 245
24 5 42 100 150 245
24 5 43 100 150 245
24 5 44 100 150 245
24 5 45 100 150 245
24 5 46 100 150 245
24 5 47 100 150 245
24 5 48 100 150 245
24 5 49 100 150 245
24 5 50 100 150 245
24 5 51 100 150 245
24 5 52 100 150 245
24 5 53 100 150 245
24 5 54 100 150 245
24 6 0 100 150 245
24 6 1 100 150 245
24 6 2 100 150 245
24 6 3 100 150 245
24 6 4 100 150 245
24 6 5 100 150 245
24 6 6 100 150 245
24 6 7 100 150 245
24 6 8 100 150 245
24 6 9 100 150 245
24 6 10 100 150 245
24 6 11 100 150 245
24 6 12 100 150 245
24 6 13 100 150 245
24 6 14 100 150 245
24 6 15 100 150 245
24 6 16 100 150 245
24 6 17 100 150 245
24 6 18 100 150 245
24 6 19 100 150 245
24 6 20 100 150 245
24 6 21 100 150 245
24 6 22 100 150 245
24 6 23 100 150 245
24 6 24 100 150 245
24 6 25 100 150 245
24 6 26 100 150 245
24 6 27 100 150 245
24 6 28 100 150 245
24 6 29 100 150 245
24 6 30 100 150 245
24 6 31 100 150 245
24 6 32 100 150 245
24 6 33 100 150 245
24 6 34 100 150 245
24 6 35 100 150 245
24 6 36 100 150 245
24 6 37 100 150 245
24 6 38 100 150 245
24 6 39 100 150 245
24 6 40 100 150 245
24 6 41 100 150 245
24 6 42 100 150 245
24 6 43 100 150 245
24 6 44 100 150 245
24 6 45 100 150 245
24 6 46 100 150 245
24 6 47 100 150 245
24 6 48 100 150 245
24 6 49 100 150 245
24 6 50 100 150 245
24 6 51 100 150 245
24 6 52 100 150 245
24 6 53 100 150 245
24 6 54 100 150 245
24 7 0 100 150 245
24 7 1 100 150 245
24 7 2 100 150 245
24 7 3 100 150 245
24 7 4 100 150 245
24 7 5 100 150 245
24 7 6 100 150 245
24 7 7 100 150 245
24 7 8 100 150 245
24 7 9 100 150 245
24 7 10 100 150 245
24 7 11 100 150 245
24 7 12 100 150 245
24 7 13 100 150 245
24 7 14 100 150 245
24 7 15 100 150 245
24 7 16 100 150 245
24 7 17 100 150 245
24 7 18 100 150 245
24 7 19 100 150 245
24 7 20 100 150 245
24 7 21 100 150 245
24 7 22 100 150 245
24 7 23 100 150 245
24 7 24 100 150 245
24 7 25 100 150 245
24 7 26 100 150 245
24 7 27 100 150 245
24 7 28 100 150 245
24 7 29 100 150 245
24 7 30 100 150 245
24 7 31 100 150 245
24 7 32 100 150 245
24 7 34 100 150 245
24 7 35 100 150 245
24 7 36 100 150 245
24 7 37 100 150 245
24 7 38 100 150 245
24 7 39 100 150 245
24 7 40 100 150 245
24 7 41 100 150 245
24 7 42 100 150 245
24 7 43 100 150 245
24 7 44 100 150 245
24 7 45 100 150 245
24 8 0 100 150 245
24 8 1 100 150 245
24 8 2 100 150 245
24 8 3 100 150 245
24 8 4 100 150 245
24 8 5 100 150 245
24 8 6 100 150 245
24 8 7 100 150 245
24 8 8 100 150 245
24 8 9 100 150 245
24 8 10 100 150 245
24 8 11 100 150 245
24 8 12 100 150 245
24 8 13 100 150 245
24 8 14 100 150 245
24 8 15 100 150 245
24 8 16 100 150 245
24 8 17 100 150 245
24 8 18 100 150 245
24 8 19 100 150 245
24 8 20 100 150 245
24 8 21 100 150 245
24 8 22 100 150 245
24 8 23 100 150 245
24 8 24 100 150 245
24 8 25 100 150 245
24 9 3 100 150 245
24 9 4 100 150 245
24 9 5 100 150 245
24 9 6 100 150 245
24 9 7 100 150 245
24 9 16 100 150 245
24 9 17 100 150 245
24 9 18 100 150 245
25 0 0 100 150 245
25 0 1 100 150 245
25 0 2 100 150 245
25 0 3 100 150 245
25 0 4 100 150 245
25 0 5 100 150 245
25 0 6 100 150 245
25 0 7 100 150 245
25 0 8 100 150 245
25 0 9 100 150 245
25 0 10 100 150 245
25 0 11 100 150 245
25 0 12 100 150 245
25 0 13 100 150 245
25 0 14 100 150 245
25 0 15 100 150 245
25 0 16 100 150 245
25 0 17 100 150 245
25 0 18 100 150 245
25 0 19 100 150 245
25 0 20 100 150 245
25 0 21 100 150 245
25 0 22 100 150 245
25 0 23 100 150 245
25 0 24 100 150 245
25 0 25 100 150 245
25 0 26 100 150 245
25 0 27 100 150 245
25 0 28 100 150 245
25 0 29 100 150 245
25 0 30 100 150 245
25 0 31 100 150 245
25 0 32 100 150 245
25 0 33 100 150 245
25 0 34 100 150 245
25 0 35 100 150 245
25 0 36 100 150 245
25 0 37 100 150 245
25 0 38 100 150 245
25 0 39 100 150 245
25 0 40 100 150 245
25 0 41 100 150 245
25 0 42 100 150 245
25 0 43 100 150 245
25 0 44 100 150 245
25 0 45 100 150 245
25 0 46 100 150 245
25 0 47 100 150 245
25 0 48 100 150 245
25 0 49 100 150 245
25 0 50 100 150 245
25 0 51 100 150 245
25 0 52 100 150 245
25 0 53 100 150 245
25 0 54 100 150 245
25 0 55 100 150 245
25 0 58 100 150 245
25 0 111 100 150 245
25 0 112 100 150 245
25 0 113 100 150 245
25 0 118 100 150 245
25 1 0 100 150 245
25 1 1 100 150 245
25 1 2 100 150 245
25 1 3 100 150 245
25 1 4 100 150 245
25 1 5 100 150 245
25 1 6 100 150 245
25 1 7 100 150 245
25 1 8 100 150 245
25 1 9 100 150 245
25 1 10 100 150 245
25 1 11 100 150 245
25 1 12 100 150 245
25 1 13 100 150 245
25 1 14 100 150 245
25 1 15 100 150 245
25 1 16 100 150 245
25 1 17 100 150 245
25 1 18 100 150 245
25 1 19 100 150 245
25 1 20 100 150 245
25 1 21 100 150 245
25 1 22 100 150 245
25 1 23 100 150 245
25 1 24 100 150 245
25 1 25 100 150 245
25 1 26 100 150 245
25 1 27 100 150 245
25 1 28 100 150 245
25 1 29 100 150 245
25 1 30 100 150 245
25 1 31 100 150 245
25 1 32 100 150 245
25 1 33 100 150 245
25 1 34 100 150 245
25 1 35 100 150 245
25 1 36 100 150 245
25 1 37 100 150 245
25 1 38 100 150 245
25 1 39 100 150 245
25 1 40 100 150 245
25 1 41 100 150 245
25 1 42 100 150 245
25 1 43 100 150 245
25 1 44 100 150 245
25 1 45 100 150 245
25 1 46 100 150 245
25 1 47 100 150 245
25 1 48 100 150 245
25 1 49 100 150 245
25 1 50 100 150 245
25 1 51 100 150 245
25 1 52 100 150 245
25 1 53 100 150 245
25 1 54 100 150 245
25 1 55 100 150 245
25 1 113 100 150 245
25 1 114 100 150 245
25 1 118 100 150 245
25 2 1 100 150 245
25 2 2 100 150 245
25 2 3 100 150 245
25 2 4 100 150 245
25 2 5 100 150 245
25 2 6 100 150 245
25 2 7 100 150 245
25 2 8 100 150 245
25 2 9 100 150 245
25 2 10 100 150 245
25 2 11 100 150 245
25 2 12 100 150 245
25 2 13 100 150 245
25 2 14 100 150 245
25 2 15 100 150 245
25 2 16 100 150 245
25 2 17 100 150 245
25 2 18 100 150 245
25 2 19 100 150 245
25 2 20 100 150 245
25 2 21 100 150 245
25 2 22 100 150 245
25 2 23 100 150 245
25 2 24 100 150 245
25 2 25 100 150 245
25 2 26 100 150 245
25 2 27 100 150 245
25 2 28 100 150 245
25 2 29 100 150 245
25 2 30 100 150 245
25 2 31 100 150 245
25 2 32 100 150 245
25 2 33 100 150 245
25 2 34 100 150 245
25 2 35 100 150 245
25 2 36 100 150 245
25 2 37 100 150 245
25 2 38 100 150 245
25 2 39 100 150 245
25 2 40 100 150 245
25 2 41 100 150 245
25 2 42 100 150 245
25 2 43 100 150 245
25 2 44 100 150 245
25 2 45 100 150 245
25 2 46 100 150 245
25 2 47 100 150 245
25 2 48 100 150 245
25 2 49 100 150 245
25 2 50 100 150 245
25 2 51 100 150 245
25 2 52 100 150 245
25 2 53 100 150 245
25 2 54 100 150 245
25 2 55 100 150 245
25 2 113 100 150 245
25 2 114 100 150 245
25 3 1 100 150 245
25 3 2 100 150 245
25 3 3 100 150 245
25 3 4 100 150 245
25 3 5 100 150 245
25 3 6 100 150 245
25 3 7 100 150 245
25 3 8 100 150 245
25 3 9 100 150 245
25 3 10 100 150 245
25 3 11 100 150 245
25 3 12 100 150 245
25 3 13 100 150 245
25 3 14 100 150 245
25 3 15 100 150 245
25 3 16 100 150 245
25 3 17 100 150 245
25 3 18 100 150 245
25 3 19 100 150 245
25 3 20 100 150 245
25 3 21 100 150 245
25 3 22 100 150 245
25 3 23 100 150 245
25 3 24 100 150 245
25 3 25 100 150 245
25 3 26 100 150 245
25 3 27 100 150 245
25 3 28 100 150 245
25 3 29 100 150 245
25 3 30 100 150 245
25 3 31 100 150 245
25 3 32 100 150 245
25 3 33 100 150 245
25 3 34 100 150 245
25 3 35 100 150 245
25 3 36 100 150 245
25 3 37 100 150 245
25 3 38 100 150 245
25 3 39 100 150 245
25 3 40 100 150 245
25 3 41 100 150 245
25 3 42 100 150 245
25 3 43 100 150 245
25 3 44 100 150 245
25 3 45 100 150 245
25 3 46 100 150 245
25 3 47 100 150 245
25 3 48 100 150 245
25 3 49 100 150 245
25 3 50 100 150 245
25 3 51 100 150 245
25 3 52 100 150 245
25 3 53 100 150 245
25 3 54 100 150 245
25 3 55 100 150 245
25 3 59 100 150 245
25 4 1 100 150 245
25 4 2 100 150 245
25 4 3 100 150 245
25 4 4 100 150 245
25 4 5 100 150 245
25 4 6 100 150 245
25 4 7 100 150 245
25 4 8 100 150 245
25 4 9 100 150 245
25 4 10 100 150 245
25 4 11 100 150 245
25 4 12 100 150 245
25 4 13 100 150 245
25 4 14 100 150 245
25 4 15 100 150 245
25 4 16 100 150 245
25 4 17 100 150 245
25 4 18 100 150 245
25 4 19 100 150 245
25 4 20 100 150 245
25 4 21 100 150 245
25 4 22 100 150 245
25 4 23 100 150 245
25 4 24 100 150 245
25 4 25 100 150 245
25 4 26 100 150 245
25 4 27 100 150 245
25 4 28 100 150 245
25 4 29 100 150 245
25 4 30 100 150 245
25 4 31 100 150 245
25 4 32 100 150 245
25 4 33 100 150 245
25 4 34 100 150 245
25 4 35 100 150 245
25 4 36 100 150 245
25 4 37 100 150 245
25 4 38 100 150 245
25 4 39 100 150 245
25 4 40 100 150 245
25 4 41 100 150 245
25 4 42 100 150 245
25 4 43 100 150 245
25 4 44 100 150 245
25 4 45 100 150 245
25 4 46 100 150 245
25 4 47 100 150 245
25 4 48 100 150 245
25 4 49 100 150 245
25 4 50 100 150 245
25 4 51 100 150 245
25 4 52 100 150 245
25 4 53 100 150 245
25 4 54 100 150 245
25 4 55 100 150 245
25 5 0 100 150 245
25 5 1 100 150 245
25 5 2 100 150 245
25 5 3 100 150 245
25 5 4 100 150 245
25 5 5 100 150 245
25 5 6 100 150 245
25 5 7 100 150 245
25 5 8 100 150 245
25 5 9 100 150 245
25 5 10 100 150 245
25 5 11 100 150 245
25 5 12 100 150 245
25 5 13 100 150 245
25 5 14 100 150 245
25 5 15 100 150 245
25 5 16 100 150 245
25 5 17 100 150 245
25 5 18 100 150 245
25 5 19 100 150 245
25 5 20 100 150 245
25 5 21 100 150 245
25 5 22 100 150 245
25 5 23 100 150 245
25 5 24 100 150 245
25 5 25 100 150 245
25 5 26 100 150 245
25 5 27 100 150 245
25 5 28 100 150 245
25 5 29 100 150 245
25 5 30 100 150 245
25 5 31 100 150 245
25 5 32 100 150 245
25 5 33 100 150 245
25 5 34 100 150 245
25 5 35 100 150 245
25 5 36 100 150 245
25 5 37 100 150 245
25 5 38 100 150 245
25 5 39 100 150 245
25 5 40 100 150 245
25 5 41 100 150 245
25 5 42 100 150 245
25 5 43 100 150 245
25 5 44 100 150 245
25 5 45 100 150 245
25 5 46 100 150 245
25 5 47 100 150 245
25 5 48 100 150 245
25 5 49 100 150 245
25 5 50 100 150 245
25 5 51 100 150 245
25 5 52 100 150 245
25 5 53 100 150 245
25 5 54 100 150 245
25 5 55 100 150 245
25 6 0 100 150 245
25 6 1 100 150 245
25 6 2 100 150 245
25 6 3 100 150 245
25 6 4 100 150 245
25 6 5 100 150 245
25 6 6 100 150 245
25 6 7 100 150 245
25 6 8 100 150 245
25 6 9 100 150 245
25 6 10 100 150 245
25 6 11 100 150 245
25 6 12 100 150 245
25 6 13 100 150 245
25 6 14 100 150 245
25 6 15 100 150 245
25 6 16 100 150 245
25 6 17 100 150 245
25 6 18 100 150 245
25 6 19 100 150 245
25 6 20 100 150 245
25 6 21 100 150 245
25 6 22 100 150 245
25 6 23 100 150 245
25 6 24 100 150 245
25 6 25 100 150 245
25 6 26 100 150 245
25 6 27 100 150 245
25 6 28 100 150 245
25 6 29 100 150 245
25 6 30 100 150 245
25 6 31 100 150 245
25 6 32 100 150 245
25 6 33 100 150 245
25 6 34 100 150 245
25 6 35 100 150 245
25 6 36 100 150 245
25 6 37 100 150 245
25 6 38 100 150 245
25 6 39 100 150 245
25 6 40 100 150 245
25 6 41 100 150 245
25 6 42 100 150 245
25 6 43 100 150 245
25 6 44 100 150 245
25 6 45 100 150 245
25 6 46 100 150 245
25 6 47 100 150 245
25 6 48 100 150 245
25 6 49 100 150 245
25 6 50 100 150 245
25 6 51 100 150 245
25 6 52 100 150 245
25 6 53 100 150 245
25 6 54 100 150 245
25 6 55 100 150 245
25 7 1 100 150 245
25 7 2 100 150 245
25 7 3 100 150 245
25 7 4 100 150 245
25 7 5 100 150 245
25 7 6 100 150 245
25 7 7 100 150 245
25 7 8 100 150 245
25 7 9 100 150 245
25 7 10 100 150 245
25 7 11 100 150 245
25 7 12 100 150 245
25 7 13 100 150 245
25 7 14 100 150 245
25 7 15 100 150 245
25 7 16 100 150 245
25 7 17 100 150 245
25 7 18 100 150 245
25 7 19 100 150 245
25 7 20 100 150 245
25 7 21 100 150 245
25 7 22 100 150 245
25 7 23 100 150 245
25 7 24 100 150 245
25 7 25 100 150 245
25 7 26 100 150 245
25 7 27 100 150 245
25 7 28 100 150 245
25 7 29 100 150 245
25 7 30 100 150 245
25 7 31 100 150 245
25 7 32 100 150 245
25 7 33 100 150 245
25 7 34 100 150 245
25 7 35 100 150 245
25 7 36 100 150 245
25 7 37 100 150 245
25 7 38 100 150 245
25 7 39 100 150 245
25 7 40 100 150 245
25 7 41 100 150 245
25 7 42 100 150 245
25 7 43 100 150 245
25 7 44 100 150 245
25 7 45 100 150 245
25 8 1 100 150 245
25 8 2 100 150 245
25 8 3 100 150 245
25 8 4 100 150 245
25 8 5 100 150 245
25 8 6 100 150 245
25 8 7 100 150 245
25 8 8 100 150 245
25 8 9 100 150 245
25 8 10 100 150 245
25 8 11 100 150 245
25 8 12 100 150 245
25 8 13 100 150 245
25 8 14 100 150 245
25 8 15 100 150 245
25 8 16 100 150 245
25 8 17 100 150 245
25 8 18 100 150 245
25 8 19 100 150 245
25 8 20 100 150 245
25 8 21 100 150 245
25 8 22 100 150 245
25 8 23 100 150 245
25 8 24 100 150 245
25 8 25 100 150 245
25 9 5 100 150 245
25 9 6 100 150 245
25 9 7 100 150 245
25 9 8 100 150 245
25 9 21 100 150 245
26 0 3 100 150 245
26 0 4 100 150 245
26 0 5 100 150 245
26 0 6 100 150 245
26 0 7 100 150 245
26 0 8 100 150 245
26 0 9 100 150 245
26 0 10 100 150 245
26 0 11 100 150 245
26 0 12 100 150 245
26 0 13 100 150 245
26 0 14 100 150 245
26 0 15 100 150 245
26 0 16 100 150 245
26 0 17 100 150 245
26 0 18 100 150 245
26 0 19 100 150 245
26 0 20 100 150 245
26 0 21 100 150 245
26 0 22 100 150 245
26 0 23 100 150 245
26 0 24 100 150 245
26 0 25 100 150 245
26 0 26 100 150 245
26 0 27 100 150 245
26 0 28 100 150 245
26 0 29 100 150 245
26 0 30 100 150 245
26 0 31 100 150 245
26 0 32 100 150 245
26 0 33 100 150 245
26 0 34 100 150 245
26 0 35 100 150 245
26 0 36 100 150 245
26 0 37 100 150 245
26 0 38 100 150 245
26 0 39 100 150 245
26 0 40 100 150 245
26 0 41 100 150 245
26 0 42 100 150 245
26 0 43 100 150 245
26 0 44 100 150 245
26 0 45 100 150 245
26 0 46 100 150 245
26 0 47 100 150 245
26 0 48 100 150 245
26 0 49 100 150 245
26 0 50 100 150 245
26 0 51 100 150 245
26 0 52 100 150 245
26 0 53 100 150 245
26 0 54 100 150 245
26 0 55 100 150 245
26 0 56 100 150 245
26 0 112 100 150 245
26 0 113 100 150 245
26 0 114 100 150 245
26 1 3 100 150 245
26 1 4 100 150 245
26 1 5 100 150 245
26 1 6 100 150 245
26 1 7 100 150 245
26 1 8 100 150 245
26 1 9 100 150 245
26 1 10 100 150 245
26 1 11 100 150 245
26 1 12 100 150 245
26 1 13 100 150 245
26 1 14 100 150 245
26 1 15 100 150 245
26 1 16 100 150 245
26 1 17 100 150 245
26 1 18 100 150 245
26 1 19 100 150 245
26 1 20 100 150 245
26 1 21 100 150 245
26 1 22 100 150 245
26 1 23 100 150 245
26 1 24 100 150 245
26 1 25 100 150 245
26 1 26 100 150 245
26 1 27 100 150 245
26 1 28 100 150 245
26 1 29 100 150 245
26 1 30 100 150 245
26 1 31 100 150 245
26 1 32 100 150 245
26 1 33 100 150 245
26 1 34 100 150 245
26 1 35 100 150 245
26 1 36 100 150 245
26 1 37 100 150 245
26 1 38 100 150 245
26 1 39 100 150 245
26 1 40 100 150 245
26 1 41 100 150 245
26 1 42 100 150 245
26 1 43 100 150 245
26 1 44 100 150 245
26 1 45 100 150 245
26 1 46 100 150 245
26 1 47 100 150 245
26 1 48 100 150 245
26 1 49 100 150 245
26 1 50 100 150 245
26 1 51 100 150 245
26 1 52 100 150 245
26 1 53 100 150 245
26 1 54 100 150 245
26 1 55 100 150 245
26 1 56 100 150 245
26 1 113 100 150 245
26 1 114 100 150 245
26 1 115 100 150 245
26 1 118 100 150 245
26 2 4 100 150 245
26 2 5 100 150 245
26 2 6 100 150 245
26 2 7 100 150 245
26 2 8 100 150 245
26 2 9 100 150 245
26 2 10 100 150 245
26 2 11 100 150 245
26 2 12 100 150 245
26 2 13 100 150 245
26 2 14 100 150 245
26 2 15 100 150 245
26 2 16 100 150 245
26 2 17 100 150 245
26 2 18 100 150 245
26 2 19 100 150 245
26 2 20 100 150 245
26 2 21 100 150 245
26 2 22 100 150 245
26 2 23 100 150 245
26 2 24 100 150 245
26 2 25 100 150 245
26 2 26 100 150 245
26 2 27 100 150 245
26 2 28 100 150 245
26 2 29 100 150 245
26 2 30 100 150 245
26 2 31 100 150 245
26 2 32 100 150 245
26 2 33 100 150 245
26 2 34 100 150 245
26 2 35 100 150 245
26 2 36 100 150 245
26 2 37 100 150 245
26 2 38 100 150 245
26 2 39 100 150 245
26 2 40 100 150 245
26 2 41 100 150 245
26 2 42 100 150 245
26 2 43 100 150 245
26 2 44 100 150 245
26 2 45 100 150 245
26 2 46 100 150 245
26 2 47 100 150 245
26 2 48 100 150 245
26 2 49 100 150 245
26 2 50 100 150 245
26 2 51 100 150 245
26 2 52 100 150 245
26 2 53 100 150 245
26 2 54 100 150 245
26 2 55 100 150 245
26 2 56 100 150 245
26 2 59 100 150 245
26 2 113 100 150 245
26 2 114 100 150 245
26 2 117 100 150 245
26 3 4 100 150 245
26 3 5 100 150 245
26 3 6 100 150 245
26 3 7 100 150 245
26 3 8 100 150 245
26 3 9 100 150 245
26 3 10 100 150 245
26 3 11 100 150 245
26 3 12 100 150 245
26 3 13 100 150 245
26 3 14 100 150 245
26 3 15 100 150 245
26 3 16 100 150 245
26 3 17 100 150 245
26 3 18 100 150 245
26 3 19 100 150 245
26 3 20 100 150 245
26 3 21 100 150 245
26 3 22 100 150 245
26 3 23 100 150 245
26 3 24 100 150 245
26 3 25 100 150 245
26 3 26 100 150 245
26 3 27 100 150 245
26 3 28 100 150 245
26 3 29 100 150 245
26 3 30 100 150 245
26 3 31 100 150 245
26 3 32 100 150 245
26 3 33 100 150 245
26 3 34 100 150 245
26 3 35 100 150 245
26 3 36 100 150 245
26 3 37 100 150 245
26 3 38 100 150 245
26 3 39 100 150 245
26 3 40 100 150 245
26 3 41 100 150 245
26 3 42 100 150 245
26 3 43 100 150 245
26 3 44 100 150 245
26 3 45 100 150 245
26 3 46 100 150 245
26 3 47 100 150 245
26 3 48 100 150 245
26 3 49 100 150 245
26 3 50 100 150 245
26 3 51 100 150 245
26 3 52 100 150 245
26 3 53 100 150 245
26 3 54 100 150 245
26 3 55 100 150 245
26 3 56 100 150 245
26 3 57 100 150 245
26 4 4 100 150 245
26 4 5 100 150 245
26 4 6 100 150 245
26 4 7 100 150 245
26 4 8 100 150 245
26 4 9 100 150 245
26 4 10 100 150 245
26 4 11 100 150 245
26 4 12 100 150 245
26 4 13 100 150 245
26 4 14 100 150 245
26 4 15 100 150 245
26 4 16 100 150 245
26 4 17 100 150 245
26 4 18 100 150 245
26 4 19 100 150 245
26 4 20 100 150 245
26 4 21 100 150 245
26 4 22 100 150 245
26 4 23 100 150 245
26 4 24 100 150 245
26 4 25 100 150 245
26 4 26 100 150 245
26 4 27 100 150 245
26 4 28 100 150 245
26 4 29 100 150 245
26 4 30 100 150 245
26 4 31 100 150 245
26 4 32 100 150 245
26 4 33 100 150 245
26 4 34 100 150 245
26 4 35 100 150 245
26 4 36 100 150 245
26 4 37 100 150 245
26 4 38 100 150 245
26 4 39 100 150 245
26 4 40 100 150 245
26 4 41 100 150 245
26 4 42 100 150 245
26 4 43 100 150 245
26 4 44 100 150 245
26 4 45 100 150 245
26 4 46 100 150 245
26 4 47 100 150 245
26 4 48 100 150 245
26 4 49 100 150 245
26 4 50 100 150 245
26 4 51 100 150 245
26 4 52 100 150 245
26 4 53 100 150 245
26 4 54 100 150 245
26 4 55 100 150 245
26 4 56 100 150 245
26 5 3 100 150 245
26 5 4 100 150 245
26 5 5 100 150 245
26 5 6 100 150 245
26 5 7 100 150 245
26 5 8 100 150 245
26 5 9 100 150 245
26 5 10 100 150 245
26 5 11 100 150 245
26 5 12 100 150 245
26 5 13 100 150 245
26 5 14 100 150 245
26 5 15 100 150 245
26 5 16 100 150 245
26 5 17 100 150 245
26 5 18 100 150 245
26 5 19 100 150 245
26 5 20 100 150 245
26 5 21 100 150 245
26 5 22 100 150 245
26 5 23 100 150 245
26 5 24 100 150 245
26 5 25 100 150 245
26 5 26 100 150 245
26 5 27 100 150 245
26 5 28 100 150 245
26 5 29 100 150 245
26 5 30 100 150 245
26 5 31 100 150 245
26 5 32 100 150 245
26 5 33 100 150 245
26 5 34 100 150 245
26 5 35 100 150 245
26 5 36 100 150 245
26 5 37 100 150 245
26 5 38 100 150 245
26 5 39 100 150 245
26 5 40 100 150 245
26 5 41 100 150 245
26 5 42 100 150 245
26 5 43 100 150 245
26 5 44 100 150 245
26 5 45 100 150 245
26 5 46 100 150 245
26 5 47 100 150 245
26 5 48 100 150 245
26 5 49 100 150 245
26 5 50 100 150 245
26 5 51 100 150 245
26 5 52 100 150 245
26 5 53 100 150 245
26 5 54 100 150 245
26 5 55 100 150 245
26 5 56 100 150 245
26 6 1 100 150 245
26 6 2 100 150 245
26 6 3 100 150 245
26 6 4 100 150 245
26 6 5 100 150 245
26 6 6 100 150 245
26 6 7 100 150 245
26 6 8 100 150 245
26 6 9 100 150 245
26 6 10 100 150 245
26 6 11 100 150 245
26 6 12 100 150 245
26 6 13 100 150 245
26 6 14 100 150 245
26 6 15 100 150 245
26 6 16 100 150 245
26 6 17 100 150 245
26 6 18 100 150 245
26 6 19 100 150 245
26 6 20 100 150 245
26 6 21 100 150 245
26 6 22 100 150 245
26 6 23 100 150 245
26 6 24 100 150 245
26 6 25 100 150 245
26 6 26 100 150 245
26 6 27 100 150 245
26 6 28 100 150 245
26 6 29 100 150 245
26 6 30 100 150 245
26 6 31 100 150 245
26 6 32 100 150 245
26 6 33 100 150 245
26 6 34 100 150 245
26 6 35 100 150 245
26 6 36 100 150 245
26 6 37 100 150 245
26 6 38 100 150 245
26 6 39 100 150 245
26 6 40 100 150 245
26 6 41 100 150 245
26 6 42 100 150 245
26 6 43 100 150 245
26 6 44 100 150 245
26 6 45 100 150 245
26 6 46 100 150 245
26 6 47 100 150 245
26 6 48 100 150 245
26 6 49 100 150 245
26 6 50 100 150 245
26 6 51 100 150 245
26 6 52 100 150 245
26 6 53 100 150 245
26 6 54 100 150 245
26 6 55 100 150 245
26 6 66 100 150 245
26 7 4 100 150 245
26 7 5 100 150 245
26 7 6 100 150 245
26 7 7 100 150 245
26 7 8 100 150 245
26 7 9 100 150 245
26 7 10 100 150 245
26 7 11 100 150 245
26 7 12 100 150 245
26 7 13 100 150 245
26 7 14 100 150 245
26 7 15 100 150 245
26 7 16 100 150 245
26 7 17 100 150 245
26 7 18 100 150 245
26 7 19 100 150 245
26 7 20 100 150 245
26 7 21 100 150 245
26 7 22 100 150 245
26 7 23 100 150 245
26 7 24 100 150 245
26 7 25 100 150 245
26 7 26 100 150 245
26 7 27 100 150 245
26 7 28 100 150 245
26 7 29 100 150 245
26 7 30 100 150 245
26 7 31 100 150 245
26 7 32 100 150 245
26 7 33 100 150 245
26 7 34 100 150 245
26 7 35 100 150 245
26 7 36 100 150 245
26 7 37 100 150 245
26 7 38 100 150 245
26 7 39 100 150 245
26 7 40 100 150 245
26 7 41 100 150 245
26 7 42 100 150 245
26 7 43 100 150 245
26 7 44 100 150 245
26 7 45 100 150 245
26 7 46 100 150 245
26 8 4 100 150 245
26 8 5 100 150 245
26 8 6 100 150 245
26 8 7 100 150 245
26 8 8 100 150 245
26 8 9 100 150 245
26 8 10 100 150 245
26 8 11 100 150 245
26 8 12 100 150 245
26 8 13 100 150 245
26 8 14 100 150 245
26 8 15 100 150 245
26 8 16 100 150 245
26 8 17 100 150 245
26 8 18 100 150 245
26 8 19 100 150 245
26 8 20 100 150 245
26 8 21 100 150 245
26 8 22 100 150 245
26 8 23 100 150 245
26 8 24 100 150 245
26 8 25 100 150 245
26 8 31 100 150 245
26 8 34 100 150 245
27 0 5 100 150 245
27 0 6 100 150 245
27 0 7 100 150 245
27 0 8 100 150 245
27 0 9 100 150 245
27 0 10 100 150 245
27 0 11 100 150 245
27 0 12 100 150 245
27 0 13 100 150 245
27 0 14 100 150 245
27 0 15 100 150 245
27 0 16 100 150 245
27 0 17 100 150 245
27 0 18 100 150 245
27 0 19 100 150 245
27 0 20 100 150 245
27 0 21 100 150 245
27 0 22 100 150 245
27 0 23 100 150 245
27 0 24 100 150 245
27 0 25 100 150 245
27 0 26 100 150 245
27 0 27 100 150 245
27 0 28 100 150 245
27 0 29 100 150 245
27 0 30 100 150 245
27 0 31 100 150 245
27 0 32 100 150 245
27 0 33 100 150 245
27 0 34 100 150 245
27 0 35 100 150 245
27 0 36 100 150 245
27 0 37 100 150 245
27 0 38 100 150 245
27 0 39 100 150 245
27 0 40 100 150 245
27 0 41 100 150 245
27 0 42 100 150 245
27 0 43 100 150 245
27 0 44 100 150 245
27 0 45 100 150 245
27 0 46 100 150 245
27 0 47 100 150 245
27 0 48 100 150 245
27 0 49 100 150 245
27 0 50 100 150 245
27 0 51 100 150 245
27 0 52 100 150 245
27 0 53 100 150 245
27 0 54 100 150 245
27 0 55 100 150 245
27 0 56 100 150 245
27 0 57 100 150 245
27 0 58 100 150 245
27 0 114 100 150 245
27 0 115 100 150 245
27 1 5 100 150 245
27 1 6 100 150 245
27 1 7 100 150 245
27 1 8 100 150 245
27 1 9 100 150 245
27 1 10 100 150 245
27 1 11 100 150 245
27 1 12 100 150 245
27 1 13 100 150 245
27 1 14 100 150 245
27 1 15 100 150 245
27 1 16 100 150 245
27 1 17 100 150 245
27 1 18 100 150 245
27 1 19 100 150 245
27 1 20 100 150 245
27 1 21 100 150 245
27 1 22 100 150 245
27 1 23 100 150 245
27 1 24 100 150 245
27 1 25 100 150 245
27 1 26 100 150 245
27 1 27 100 150 245
27 1 28 100 150 245
27 1 29 100 150 245
27 1 30 100 150 245
27 1 31 100 150 245
27 1 32 100 150 245
27 1 33 100 150 245
27 1 34 100 150 245
27 1 35 100 150 245
27 1 36 100 150 245
27 1 37 100 150 245
27 1 38 100 150 245
27 1 39 100 150 245
27 1 40 100 150 245
27 1 41 100 150 245
27 1 42 100 150 245
27 1 43 100 150 245
27 1 44 100 150 245
27 1 45 100 150 245
27 1 46 100 150 245
27 1 47 100 150 245
27 1 48 100 150 245
27 1 49 100 150 245
27 1 50 100 150 245
27 1 51 100 150 245
27 1 52 100 150 245
27 1 53 100 150 245
27 1 54 100 150 245
