ply
format ascii 1.0
element vertex 2670
property float x
property float y
property float z
property uchar red
property uchar green
property uchar blue
end_header
56 7 123 0 175 0
56 7 124 0 175 0
56 7 126 0 175 0
56 7 130 0 175 0
56 7 131 0 175 0
56 7 132 0 175 0
56 7 133 0 175 0
56 7 134 0 175 0
56 7 135 0 175 0
56 7 136 0 175 0
56 7 137 0 175 0
56 7 138 0 175 0
56 7 139 0 175 0
56 7 140 0 175 0
56 7 141 0 175 0
56 7 142 0 175 0
56 7 143 0 175 0
56 8 120 255 120 50
56 8 121 255 120 50
56 8 122 255 120 50
56 8 123 0 175 0
56 8 130 0 175 0
56 8 131 0 175 0
56 8 132 0 175 0
56 8 133 0 175 0
56 8 134 0 175 0
56 8 135 0 175 0
56 8 136 0 175 0
56 8 137 0 175 0
56 8 138 0 175 0
56 8 139 0 175 0
56 8 140 0 175 0
56 8 141 0 175 0
56 8 142 0 175 0
56 8 143 0 175 0
56 8 144 0 175 0
56 9 119 255 120 50
56 9 120 255 120 50
56 9 121 255 120 50
56 9 122 255 120 50
56 9 131 0 175 0
56 9 133 0 175 0
56 9 134 0 175 0
56 9 135 0 175 0
56 9 136 0 175 0
56 9 137 0 175 0
56 9 138 0 175 0
56 9 139 0 175 0
56 9 140 0 175 0
56 9 143 0 175 0
56 9 144 0 175 0
56 10 120 255 120 50
56 10 121 255 120 50
56 10 122 255 120 50
56 10 130 0 175 0
56 10 131 0 175 0
56 10 132 0 175 0
56 10 133 0 175 0
56 10 134 0 175 0
56 10 135 0 175 0
56 10 136 0 175 0
56 10 137 0 175 0
56 10 138 0 175 0
56 10 139 0 175 0
56 10 140 0 175 0
56 10 141 0 175 0
56 10 143 0 175 0
56 10 144 0 175 0
56 10 146 0 175 0
56 10 147 0 175 0
56 10 148 0 175 0
56 11 120 255 120 50
56 11 121 255 120 50
56 11 122 255 120 50
56 11 123 0 175 0
56 11 127 0 175 0
56 11 130 0 175 0
56 11 131 0 175 0
56 11 132 0 175 0
56 11 133 0 175 0
56 11 134 0 175 0
56 11 135 0 175 0
56 11 136 0 175 0
56 11 137 0 175 0
56 11 138 0 175 0
56 11 139 0 175 0
56 11 140 0 175 0
56 11 141 0 175 0
56 11 142 0 175 0
56 11 144 0 175 0
56 11 145 0 175 0
56 11 146 0 175 0
56 11 147 0 175 0
56 11 148 0 175 0
56 11 149 0 175 0
56 11 150 0 175 0
56 11 151 0 175 0
56 12 131 0 175 0
56 12 132 0 175 0
56 12 134 0 175 0
56 12 136 0 175 0
56 12 137 0 175 0
56 12 138 0 175 0
56 12 139 0 175 0
56 12 140 0 175 0
56 12 141 0 175 0
56 12 142 0 175 0
56 12 143 0 175 0
56 12 144 0 175 0
56 12 145 0 175 0
56 12 146 0 175 0
56 12 147 0 175 0
56 12 148 0 175 0
56 12 149 0 175 0
56 12 150 0 175 0
56 12 151 0 175 0
56 13 143 0 175 0
56 13 144 0 175 0
56 13 145 0 175 0
56 13 146 0 175 0
56 13 147 0 175 0
56 13 148 0 175 0
56 13 149 0 175 0
56 14 146 0 175 0
56 14 147 0 175 0
56 14 148 0 175 0
56 14 149 0 175 0
56 14 150 0 175 0
56 14 151 0 175 0
56 15 149 0 175 0
56 15 150 0 175 0
56 15 151 0 175 0
56 15 152 0 175 0
56 16 148 0 175 0
56 16 149 0 175 0
56 16 150 0 175 0
56 17 147 0 175 0
56 17 148 0 175 0
56 17 149 0 175 0
56 18 144 0 175 0
56 18 145 0 175 0
56 19 145 0 175 0
56 20 143 0 175 0
56 21 140 0 175 0
56 22 122 255 120 50
57 0 122 255 120 50
57 0 124 0 175 0
57 0 130 0 175 0
57 0 132 0 175 0
57 0 133 0 175 0
57 0 134 0 175 0
57 0 136 0 175 0
57 0 137 0 175 0
57 0 138 150 240 80
57 0 139 150 240 80
57 0 140 150 240 80
57 0 141 150 240 80
57 0 142 150 240 80
57 0 143 150 240 80
57 0 144 150 240 80
57 0 145 150 240 80
57 0 146 150 240 80
57 0 147 150 240 80
57 0 148 150 240 80
57 0 149 150 240 80
57 0 150 150 240 80
57 0 151 150 240 80
57 0 152 255 0 255
57 0 153 255 0 255
57 0 154 255 0 255
57 0 155 255 0 255
57 0 156 255 0 255
57 0 157 255 0 255
57 0 158 255 0 255
57 0 159 255 0 255
57 0 160 255 0 255
57 0 161 255 0 255
57 0 162 255 0 255
57 0 163 255 0 255
57 0 164 255 0 255
57 0 165 255 0 255
57 0 166 255 0 255
57 0 167 255 0 255
57 0 168 255 0 255
57 0 169 255 0 255
57 0 170 255 0 255
57 0 171 255 0 255
57 0 172 255 0 255
57 0 173 255 0 255
57 0 174 255 0 255
57 1 124 255 120 50
57 1 125 0 175 0
57 1 131 0 175 0
57 1 134 0 175 0
57 1 135 0 175 0
57 1 136 0 175 0
57 1 137 0 175 0
57 1 138 0 175 0
57 1 139 0 175 0
57 1 140 0 175 0
57 1 141 0 175 0
57 1 142 0 175 0
57 1 143 0 175 0
57 1 144 0 175 0
57 1 145 150 240 80
57 1 146 150 240 80
57 1 147 150 240 80
57 1 148 150 240 80
57 1 149 150 240 80
57 1 150 150 240 80
57 1 151 150 240 80
57 1 152 150 240 80
57 1 158 255 0 255
57 1 159 255 0 255
57 1 160 255 0 255
57 1 161 255 0 255
57 1 162 255 0 255
57 1 163 255 0 255
57 1 164 255 0 255
57 1 165 255 0 255
57 1 166 255 0 255
57 1 167 255 0 255
57 1 168 255 0 255
57 1 169 255 0 255
57 1 170 255 0 255
57 1 171 255 0 255
57 1 172 255 0 255
57 1 173 255 0 255
57 1 174 255 0 255
57 2 121 255 120 50
57 2 122 255 120 50
57 2 123 255 120 50
57 2 124 255 120 50
57 2 125 0 175 0
57 2 128 0 175 0
57 2 130 0 175 0
57 2 131 0 175 0
57 2 132 0 175 0
57 2 133 0 175 0
57 2 134 0 175 0
57 2 135 0 175 0
57 2 136 0 175 0
57 2 137 0 175 0
57 2 138 0 175 0
57 2 139 0 175 0
57 2 140 0 175 0
57 2 141 0 175 0
57 2 142 0 175 0
57 2 143 0 175 0
57 2 144 0 175 0
57 2 145 0 175 0
57 2 150 0 175 0
57 2 167 255 0 255
57 3 122 255 120 50
57 3 123 255 120 50
57 3 124 255 120 50
57 3 126 0 175 0
57 3 128 0 175 0
57 3 129 0 175 0
57 3 130 0 175 0
57 3 131 0 175 0
57 3 132 0 175 0
57 3 133 0 175 0
57 3 134 0 175 0
57 3 135 0 175 0
57 3 136 0 175 0
57 3 137 0 175 0
57 3 138 0 175 0
57 3 139 0 175 0
57 3 140 0 175 0
57 3 141 0 175 0
57 3 142 0 175 0
57 3 143 0 175 0
57 4 121 255 120 50
57 4 122 255 120 50
57 4 123 255 120 50
57 4 124 255 120 50
57 4 129 0 175 0
57 4 130 0 175 0
57 4 131 0 175 0
57 4 132 0 175 0
57 4 133 0 175 0
57 4 134 0 175 0
57 4 135 0 175 0
57 4 136 0 175 0
57 4 137 0 175 0
57 4 138 0 175 0
57 4 139 0 175 0
57 4 140 0 175 0
57 4 141 0 175 0
57 4 142 0 175 0
57 4 143 0 175 0
57 4 144 0 175 0
57 4 145 0 175 0
57 4 146 0 175 0
57 4 150 0 175 0
57 5 122 255 120 50
57 5 123 255 120 50
57 5 124 0 175 0
57 5 126 0 175 0
57 5 128 0 175 0
57 5 130 0 175 0
57 5 131 0 175 0
57 5 132 0 175 0
57 5 133 0 175 0
57 5 134 0 175 0
57 5 135 0 175 0
57 5 136 0 175 0
57 5 137 0 175 0
57 5 138 0 175 0
57 5 139 0 175 0
57 5 140 0 175 0
57 5 141 0 175 0
57 5 142 0 175 0
57 5 143 0 175 0
57 5 144 0 175 0
57 5 145 0 175 0
57 5 146 0 175 0
57 6 121 255 120 50
57 6 122 255 120 50
57 6 123 255 120 50
57 6 124 255 120 50
57 6 126 0 175 0
57 6 127 0 175 0
57 6 128 0 175 0
57 6 129 0 175 0
57 6 130 0 175 0
57 6 131 0 175 0
57 6 132 0 175 0
57 6 133 0 175 0
57 6 134 0 175 0
57 6 135 0 175 0
57 6 136 0 175 0
57 6 137 0 175 0
57 6 138 0 175 0
57 6 139 0 175 0
57 6 140 0 175 0
57 6 141 0 175 0
57 6 143 0 175 0
57 6 144 0 175 0
57 7 121 255 120 50
57 7 122 255 120 50
57 7 123 255 120 50
57 7 124 0 175 0
57 7 128 0 175 0
57 7 130 0 175 0
57 7 131 0 175 0
57 7 132 0 175 0
57 7 133 0 175 0
57 7 134 0 175 0
57 7 135 0 175 0
57 7 136 0 175 0
57 7 137 0 175 0
57 7 138 0 175 0
57 7 139 0 175 0
57 7 140 0 175 0
57 7 141 0 175 0
57 7 142 0 175 0
57 7 149 0 175 0
57 8 122 255 120 50
57 8 123 255 120 50
57 8 132 0 175 0
57 8 133 0 175 0
57 8 134 0 175 0
57 8 135 0 175 0
57 8 136 0 175 0
57 8 137 0 175 0
57 8 138 0 175 0
57 8 139 0 175 0
57 8 140 0 175 0
57 8 141 0 175 0
57 8 142 0 175 0
57 8 143 0 175 0
57 8 144 0 175 0
57 8 145 0 175 0
57 8 148 0 175 0
57 8 149 0 175 0
57 9 121 255 120 50
57 9 122 255 120 50
57 9 123 255 120 50
57 9 128 0 175 0
57 9 129 0 175 0
57 9 131 0 175 0
57 9 132 0 175 0
57 9 133 0 175 0
57 9 134 0 175 0
57 9 135 0 175 0
57 9 136 0 175 0
57 9 137 0 175 0
57 9 138 0 175 0
57 9 139 0 175 0
57 9 140 0 175 0
57 9 141 0 175 0
57 9 142 0 175 0
57 9 143 0 175 0
57 9 148 0 175 0
57 9 149 0 175 0
57 10 121 255 120 50
57 10 122 255 120 50
57 10 124 255 120 50
57 10 128 0 175 0
57 10 131 0 175 0
57 10 132 0 175 0
57 10 133 0 175 0
57 10 134 0 175 0
57 10 135 0 175 0
57 10 136 0 175 0
57 10 137 0 175 0
57 10 138 0 175 0
57 10 139 0 175 0
57 10 140 0 175 0
57 10 141 0 175 0
57 10 142 0 175 0
57 10 143 0 175 0
57 10 144 0 175 0
57 10 145 0 175 0
57 10 146 0 175 0
57 10 147 0 175 0
57 10 148 0 175 0
57 10 149 0 175 0
57 11 121 255 120 50
57 11 122 255 120 50
57 11 123 255 120 50
57 11 124 255 120 50
57 11 127 0 175 0
57 11 128 0 175 0
57 11 129 0 175 0
57 11 133 0 175 0
57 11 135 0 175 0
57 11 136 0 175 0
57 11 137 0 175 0
57 11 138 0 175 0
57 11 139 0 175 0
57 11 140 0 175 0
57 11 141 0 175 0
57 11 142 0 175 0
57 11 143 0 175 0
57 11 144 0 175 0
57 11 145 0 175 0
57 11 146 0 175 0
57 11 147 0 175 0
57 11 148 0 175 0
57 11 149 0 175 0
57 11 150 0 175 0
57 11 151 0 175 0
57 12 135 0 175 0
57 12 138 0 175 0
57 12 142 0 175 0
57 12 143 0 175 0
57 12 144 0 175 0
57 12 145 0 175 0
57 12 146 0 175 0
57 12 147 0 175 0
57 12 148 0 175 0
57 12 149 0 175 0
57 12 150 0 175 0
57 12 151 0 175 0
57 13 142 0 175 0
57 13 143 0 175 0
57 13 144 0 175 0
57 13 145 0 175 0
57 13 146 0 175 0
57 13 147 0 175 0
57 13 148 0 175 0
57 13 149 0 175 0
57 13 150 0 175 0
57 13 151 0 175 0
57 13 152 0 175 0
57 13 154 0 175 0
57 14 147 0 175 0
57 14 148 0 175 0
57 14 149 0 175 0
57 14 150 0 175 0
57 14 154 0 175 0
57 15 148 0 175 0
57 15 149 0 175 0
57 15 150 0 175 0
57 15 151 0 175 0
57 15 152 0 175 0
57 15 153 0 175 0
57 16 148 0 175 0
57 16 149 0 175 0
57 16 150 0 175 0
57 16 151 0 175 0
57 17 148 0 175 0
57 17 149 0 175 0
57 17 150 0 175 0
57 18 143 0 175 0
57 18 146 0 175 0
57 18 148 0 175 0
57 19 145 0 175 0
57 19 146 0 175 0
57 19 147 0 175 0
57 19 148 0 175 0
57 20 139 0 175 0
57 21 142 0 175 0
57 21 146 0 175 0
57 22 122 255 120 50
57 22 137 0 175 0
57 22 138 0 175 0
58 0 124 255 120 50
58 0 125 255 120 50
58 0 126 0 175 0
58 0 129 0 175 0
58 0 134 0 175 0
58 0 135 0 175 0
58 0 136 0 175 0
58 0 137 0 175 0
58 0 138 0 175 0
58 0 139 0 175 0
58 0 140 150 240 80
58 0 141 150 240 80
58 0 142 150 240 80
58 0 143 150 240 80
58 0 144 150 240 80
58 0 145 150 240 80
58 0 146 150 240 80
58 0 147 150 240 80
58 0 148 150 240 80
58 0 149 150 240 80
58 0 150 150 240 80
58 0 151 150 240 80
58 0 152 150 240 80
58 0 153 150 240 80
58 0 154 255 0 255
58 0 155 255 0 255
58 0 156 255 0 255
58 0 157 255 0 255
58 0 158 255 0 255
58 0 159 255 0 255
58 0 160 255 0 255
58 0 161 255 0 255
58 0 162 255 0 255
58 0 163 255 0 255
58 0 164 255 0 255
58 0 165 255 0 255
58 0 166 255 0 255
58 0 167 255 0 255
58 0 168 255 0 255
58 0 169 255 0 255
58 0 170 255 0 255
58 0 171 255 0 255
58 0 172 255 0 255
58 0 173 255 0 255
58 0 174 255 0 255
58 0 175 255 0 255
58 1 124 255 120 50
58 1 125 255 120 50
58 1 126 0 175 0
58 1 127 0 175 0
58 1 134 0 175 0
58 1 135 0 175 0
58 1 136 0 175 0
58 1 137 0 175 0
58 1 138 0 175 0
58 1 139 0 175 0
58 1 140 0 175 0
58 1 141 0 175 0
58 1 142 0 175 0
58 1 143 0 175 0
58 1 144 0 175 0
58 1 145 0 175 0
58 1 146 150 240 80
58 1 147 150 240 80
58 1 148 150 240 80
58 1 149 150 240 80
58 1 150 150 240 80
58 1 151 150 240 80
58 1 152 150 240 80
58 1 153 150 240 80
58 1 154 150 240 80
58 1 157 255 0 255
58 1 158 255 0 255
58 1 159 255 0 255
58 1 160 255 0 255
58 1 161 255 0 255
58 1 162 255 0 255
58 1 165 255 0 255
58 1 166 255 0 255
58 1 167 255 0 255
58 1 168 255 0 255
58 1 169 255 0 255
58 1 170 255 0 255
58 1 171 255 0 255
58 1 172 255 0 255
58 1 173 255 0 255
58 1 174 255 0 255
58 1 175 255 0 255
58 2 122 255 120 50
58 2 124 255 120 50
58 2 125 255 120 50
58 2 126 0 175 0
58 2 128 0 175 0
58 2 129 0 175 0
58 2 130 0 175 0
58 2 131 0 175 0
58 2 132 0 175 0
58 2 133 0 175 0
58 2 134 0 175 0
58 2 135 0 175 0
58 2 136 0 175 0
58 2 137 0 175 0
58 2 138 0 175 0
58 2 139 0 175 0
58 2 140 0 175 0
58 2 141 0 175 0
58 2 142 0 175 0
58 2 143 0 175 0
58 2 144 0 175 0
58 2 145 0 175 0
58 2 146 0 175 0
58 2 167 255 0 255
58 3 124 255 120 50
58 3 125 255 120 50
58 3 126 0 175 0
58 3 130 0 175 0
58 3 131 0 175 0
58 3 132 0 175 0
58 3 133 0 175 0
58 3 134 0 175 0
58 3 135 0 175 0
58 3 136 0 175 0
58 3 137 0 175 0
58 3 138 0 175 0
58 3 139 0 175 0
58 3 140 0 175 0
58 3 141 0 175 0
58 3 142 0 175 0
58 3 143 0 175 0
58 3 144 0 175 0
58 4 124 255 120 50
58 4 125 255 120 50
58 4 127 0 175 0
58 4 128 0 175 0
58 4 130 0 175 0
58 4 132 0 175 0
58 4 133 0 175 0
58 4 134 0 175 0
58 4 135 0 175 0
58 4 136 0 175 0
58 4 137 0 175 0
58 4 138 0 175 0
58 4 139 0 175 0
58 4 140 0 175 0
58 4 141 0 175 0
58 4 142 0 175 0
58 4 143 0 175 0
58 4 144 0 175 0
58 4 145 0 175 0
58 5 123 255 120 50
58 5 124 255 120 50
58 5 125 255 120 50
58 5 126 0 175 0
58 5 127 0 175 0
58 5 128 0 175 0
58 5 130 0 175 0
58 5 131 0 175 0
58 5 132 0 175 0
58 5 133 0 175 0
58 5 134 0 175 0
58 5 135 0 175 0
58 5 136 0 175 0
58 5 137 0 175 0
58 5 138 0 175 0
58 5 139 0 175 0
58 5 140 0 175 0
58 5 141 0 175 0
58 5 142 0 175 0
58 5 143 0 175 0
58 5 144 0 175 0
58 5 145 0 175 0
58 5 146 0 175 0
58 6 121 255 120 50
58 6 122 255 120 50
58 6 123 255 120 50
58 6 124 255 120 50
58 6 126 0 175 0
58 6 127 0 175 0
58 6 128 0 175 0
58 6 129 0 175 0
58 6 130 0 175 0
58 6 131 0 175 0
58 6 132 0 175 0
58 6 133 0 175 0
58 6 134 0 175 0
58 6 135 0 175 0
58 6 136 0 175 0
58 6 137 0 175 0
58 6 138 0 175 0
58 6 139 0 175 0
58 6 140 0 175 0
58 6 141 0 175 0
58 6 142 0 175 0
58 6 143 0 175 0
58 6 144 0 175 0
58 6 145 0 175 0
58 7 121 255 120 50
58 7 122 255 120 50
58 7 123 255 120 50
58 7 124 255 120 50
58 7 127 0 175 0
58 7 128 0 175 0
58 7 130 0 175 0
58 7 131 0 175 0
58 7 132 0 175 0
58 7 133 0 175 0
58 7 134 0 175 0
58 7 135 0 175 0
58 7 136 0 175 0
58 7 137 0 175 0
58 7 138 0 175 0
58 7 139 0 175 0
58 7 140 0 175 0
58 7 141 0 175 0
58 7 142 0 175 0
58 7 143 0 175 0
58 7 144 0 175 0
58 7 148 0 175 0
58 7 149 0 175 0
58 8 123 255 120 50
58 8 124 255 120 50
58 8 127 0 175 0
58 8 131 0 175 0
58 8 132 0 175 0
58 8 133 0 175 0
58 8 134 0 175 0
58 8 135 0 175 0
58 8 136 0 175 0
58 8 137 0 175 0
58 8 138 0 175 0
58 8 139 0 175 0
58 8 140 0 175 0
58 8 141 0 175 0
58 8 142 0 175 0
58 8 143 0 175 0
58 8 144 0 175 0
58 8 145 0 175 0
58 8 148 0 175 0
58 8 149 0 175 0
58 9 121 255 120 50
58 9 123 255 120 50
58 9 124 255 120 50
58 9 126 0 175 0
58 9 127 0 175 0
58 9 128 0 175 0
58 9 129 0 175 0
58 9 130 0 175 0
58 9 131 0 175 0
58 9 132 0 175 0
58 9 133 0 175 0
58 9 134 0 175 0
58 9 135 0 175 0
58 9 136 0 175 0
58 9 137 0 175 0
58 9 138 0 175 0
58 9 139 0 175 0
58 9 140 0 175 0
58 9 141 0 175 0
58 9 142 0 175 0
58 9 143 0 175 0
58 9 144 0 175 0
58 9 145 0 175 0
58 9 146 0 175 0
58 9 147 0 175 0
58 9 148 0 175 0
58 9 149 0 175 0
58 10 122 255 120 50
58 10 123 255 120 50
58 10 124 255 120 50
58 10 127 0 175 0
58 10 128 0 175 0
58 10 129 0 175 0
58 10 131 0 175 0
58 10 132 0 175 0
58 10 133 0 175 0
58 10 134 0 175 0
58 10 135 0 175 0
58 10 136 0 175 0
58 10 137 0 175 0
58 10 138 0 175 0
58 10 139 0 175 0
58 10 140 0 175 0
58 10 141 0 175 0
58 10 142 0 175 0
58 10 143 0 175 0
58 10 144 0 175 0
58 10 145 0 175 0
58 10 146 0 175 0
58 10 147 0 175 0
58 10 148 0 175 0
58 10 149 0 175 0
58 10 152 0 175 0
58 11 123 255 120 50
58 11 124 255 120 50
58 11 126 0 175 0
58 11 127 0 175 0
58 11 131 0 175 0
58 11 134 0 175 0
58 11 135 0 175 0
58 11 136 0 175 0
58 11 137 0 175 0
58 11 138 0 175 0
58 11 139 0 175 0
58 11 140 0 175 0
58 11 141 0 175 0
58 11 142 0 175 0
58 11 143 0 175 0
58 11 144 0 175 0
58 11 145 0 175 0
58 11 146 0 175 0
58 11 147 0 175 0
58 11 148 0 175 0
58 11 149 0 175 0
58 11 150 0 175 0
58 12 123 255 120 50
58 12 142 0 175 0
58 12 143 0 175 0
58 12 144 0 175 0
58 12 145 0 175 0
58 12 146 0 175 0
58 12 147 0 175 0
58 12 148 0 175 0
58 12 149 0 175 0
58 12 150 0 175 0
58 12 151 0 175 0
58 12 152 0 175 0
58 13 142 0 175 0
58 13 143 0 175 0
58 13 144 0 175 0
58 13 145 0 175 0
58 13 146 0 175 0
58 13 147 0 175 0
58 13 148 0 175 0
58 13 149 0 175 0
58 13 150 0 175 0
58 13 151 0 175 0
58 13 152 0 175 0
58 13 154 0 175 0
58 14 149 0 175 0
58 14 150 0 175 0
58 14 151 0 175 0
58 14 152 0 175 0
58 14 154 0 175 0
58 15 147 0 175 0
58 15 148 0 175 0
58 15 149 0 175 0
58 15 150 0 175 0
58 15 151 0 175 0
58 15 152 0 175 0
58 16 147 0 175 0
58 16 148 0 175 0
58 16 149 0 175 0
58 16 151 0 175 0
58 16 152 0 175 0
58 17 148 0 175 0
58 17 149 0 175 0
58 17 150 0 175 0
58 17 151 0 175 0
58 18 146 0 175 0
58 18 148 0 175 0
58 18 149 0 175 0
58 19 146 0 175 0
58 19 147 0 175 0
58 19 148 0 175 0
58 19 149 0 175 0
58 20 132 0 175 0
58 20 141 0 175 0
58 20 143 0 175 0
58 20 145 0 175 0
58 20 148 0 175 0
58 21 142 0 175 0
59 0 124 255 120 50
59 0 126 255 120 50
59 0 133 0 175 0
59 0 134 0 175 0
59 0 135 0 175 0
59 0 137 0 175 0
59 0 138 0 175 0
59 0 139 0 175 0
59 0 140 0 175 0
59 0 141 150 240 80
59 0 142 150 240 80
59 0 143 150 240 80
59 0 144 150 240 80
59 0 145 150 240 80
59 0 146 150 240 80
59 0 147 150 240 80
59 0 148 150 240 80
59 0 149 150 240 80
59 0 150 150 240 80
59 0 151 150 240 80
59 0 152 150 240 80
59 0 153 150 240 80
59 0 154 150 240 80
59 0 155 255 0 255
59 0 156 255 0 255
59 0 157 255 0 255
59 0 158 255 0 255
59 0 159 255 0 255
59 0 160 255 0 255
59 0 161 255 0 255
59 0 162 255 0 255
59 0 163 255 0 255
59 0 164 255 0 255
59 0 165 255 0 255
59 0 166 255 0 255
59 0 167 255 0 255
59 0 168 255 0 255
59 0 169 255 0 255
59 0 170 255 0 255
59 0 171 255 0 255
59 0 172 255 0 255
59 0 173 255 0 255
59 0 174 255 0 255
59 0 175 255 0 255
59 0 176 255 0 255
59 1 125 255 120 50
59 1 126 255 120 50
59 1 131 0 175 0
59 1 132 0 175 0
59 1 133 0 175 0
59 1 134 0 175 0
59 1 135 0 175 0
59 1 136 0 175 0
59 1 137 0 175 0
59 1 138 0 175 0
59 1 139 0 175 0
59 1 140 0 175 0
59 1 141 0 175 0
59 1 142 0 175 0
59 1 143 0 175 0
59 1 144 0 175 0
59 1 145 0 175 0
59 1 146 150 240 80
59 1 147 150 240 80
59 1 148 150 240 80
59 1 149 150 240 80
59 1 150 150 240 80
59 1 151 150 240 80
59 1 152 150 240 80
59 1 153 150 240 80
59 1 154 150 240 80
59 1 155 150 240 80
59 1 167 255 0 255
59 1 168 255 0 255
59 1 169 255 0 255
59 1 170 255 0 255
59 1 171 255 0 255
59 1 172 255 0 255
59 1 173 255 0 255
59 1 174 255 0 255
59 1 175 255 0 255
59 1 176 255 0 255
59 2 124 255 120 50
59 2 125 255 120 50
59 2 126 255 120 50
59 2 128 0 175 0
59 2 129 0 175 0
59 2 131 0 175 0
59 2 132 0 175 0
59 2 133 0 175 0
59 2 134 0 175 0
59 2 135 0 175 0
59 2 136 0 175 0
59 2 137 0 175 0
59 2 138 0 175 0
59 2 139 0 175 0
59 2 140 0 175 0
59 2 141 0 175 0
59 2 142 0 175 0
59 2 143 0 175 0
59 2 144 0 175 0
59 2 145 0 175 0
59 2 146 0 175 0
59 2 151 0 175 0
59 2 153 0 175 0
59 2 176 255 0 255
59 3 124 255 120 50
59 3 125 255 120 50
59 3 131 0 175 0
59 3 132 0 175 0
59 3 133 0 175 0
59 3 134 0 175 0
59 3 135 0 175 0
59 3 136 0 175 0
59 3 137 0 175 0
59 3 138 0 175 0
59 3 139 0 175 0
59 3 140 0 175 0
59 3 141 0 175 0
59 3 142 0 175 0
59 3 143 0 175 0
59 3 144 0 175 0
59 3 145 0 175 0
59 3 150 0 175 0
59 4 124 255 120 50
59 4 125 255 120 50
59 4 126 255 120 50
59 4 131 0 175 0
59 4 132 0 175 0
59 4 133 0 175 0
59 4 134 0 175 0
59 4 135 0 175 0
59 4 136 0 175 0
59 4 137 0 175 0
59 4 138 0 175 0
59 4 139 0 175 0
59 4 140 0 175 0
59 4 141 0 175 0
59 4 142 0 175 0
59 4 143 0 175 0
59 4 144 0 175 0
59 4 145 0 175 0
59 4 146 0 175 0
59 4 147 0 175 0
59 5 124 255 120 50
59 5 125 255 120 50
59 5 126 255 120 50
59 5 127 255 120 50
59 5 129 0 175 0
59 5 130 0 175 0
59 5 131 0 175 0
59 5 132 0 175 0
59 5 133 0 175 0
59 5 134 0 175 0
59 5 135 0 175 0
59 5 136 0 175 0
59 5 137 0 175 0
59 5 138 0 175 0
59 5 139 0 175 0
59 5 140 0 175 0
59 5 141 0 175 0
59 5 142 0 175 0
59 5 143 0 175 0
59 5 144 0 175 0
59 5 145 0 175 0
59 5 146 0 175 0
59 5 147 0 175 0
59 6 124 255 120 50
59 6 125 255 120 50
59 6 126 255 120 50
59 6 127 0 175 0
59 6 128 0 175 0
59 6 129 0 175 0
59 6 130 0 175 0
59 6 131 0 175 0
59 6 132 0 175 0
59 6 133 0 175 0
59 6 134 0 175 0
59 6 135 0 175 0
59 6 136 0 175 0
59 6 137 0 175 0
59 6 138 0 175 0
59 6 139 0 175 0
59 6 140 0 175 0
59 6 141 0 175 0
59 6 142 0 175 0
59 6 143 0 175 0
59 6 144 0 175 0
59 6 145 0 175 0
59 6 146 0 175 0
59 6 147 0 175 0
59 6 148 0 175 0
59 7 124 255 120 50
59 7 125 255 120 50
59 7 126 255 120 50
59 7 127 255 120 50
59 7 131 0 175 0
59 7 132 0 175 0
59 7 133 0 175 0
59 7 134 0 175 0
59 7 135 0 175 0
59 7 136 0 175 0
59 7 137 0 175 0
59 7 138 0 175 0
59 7 139 0 175 0
59 7 140 0 175 0
59 7 141 0 175 0
59 7 142 0 175 0
59 7 143 0 175 0
59 7 144 0 175 0
59 7 145 0 175 0
59 7 146 0 175 0
59 7 147 0 175 0
59 7 148 0 175 0
59 7 149 0 175 0
59 7 150 0 175 0
59 8 124 255 120 50
59 8 125 255 120 50
59 8 126 255 120 50
59 8 131 0 175 0
59 8 132 0 175 0
59 8 134 0 175 0
59 8 135 0 175 0
59 8 136 0 175 0
59 8 137 0 175 0
59 8 138 0 175 0
59 8 139 0 175 0
59 8 140 0 175 0
59 8 141 0 175 0
59 8 142 0 175 0
59 8 143 0 175 0
59 8 144 0 175 0
59 8 145 0 175 0
59 8 146 0 175 0
59 8 147 0 175 0
59 8 148 0 175 0
59 8 149 0 175 0
59 8 151 0 175 0
59 9 124 255 120 50
59 9 126 255 120 50
59 9 127 0 175 0
59 9 128 0 175 0
59 9 129 0 175 0
59 9 130 0 175 0
59 9 131 0 175 0
59 9 132 0 175 0
59 9 133 0 175 0
59 9 134 0 175 0
59 9 135 0 175 0
59 9 136 0 175 0
59 9 137 0 175 0
59 9 138 0 175 0
59 9 139 0 175 0
59 9 140 0 175 0
59 9 141 0 175 0
59 9 142 0 175 0
59 9 143 0 175 0
59 9 144 0 175 0
59 9 145 0 175 0
59 9 146 0 175 0
59 9 147 0 175 0
59 9 148 0 175 0
59 9 149 0 175 0
59 10 124 255 120 50
59 10 125 255 120 50
59 10 126 255 120 50
59 10 127 0 175 0
59 10 128 0 175 0
59 10 130 0 175 0
59 10 131 0 175 0
59 10 132 0 175 0
59 10 133 0 175 0
59 10 134 0 175 0
59 10 135 0 175 0
59 10 136 0 175 0
59 10 137 0 175 0
59 10 138 0 175 0
59 10 139 0 175 0
59 10 140 0 175 0
59 10 141 0 175 0
59 10 142 0 175 0
59 10 143 0 175 0
59 10 144 0 175 0
59 10 145 0 175 0
59 10 146 0 175 0
59 10 147 0 175 0
59 10 148 0 175 0
59 10 149 0 175 0
59 10 150 0 175 0
59 10 151 0 175 0
59 10 152 0 175 0
59 10 153 0 175 0
59 10 154 0 175 0
59 11 123 255 120 50
59 11 127 0 175 0
59 11 132 0 175 0
59 11 133 0 175 0
59 11 134 0 175 0
59 11 135 0 175 0
59 11 136 0 175 0
59 11 137 0 175 0
59 11 138 0 175 0
59 11 139 0 175 0
59 11 140 0 175 0
59 11 141 0 175 0
59 11 142 0 175 0
59 11 143 0 175 0
59 11 144 0 175 0
59 11 145 0 175 0
59 11 146 0 175 0
59 11 147 0 175 0
59 11 148 0 175 0
59 11 149 0 175 0
59 11 150 0 175 0
59 11 151 0 175 0
59 11 152 0 175 0
59 11 153 0 175 0
59 12 137 0 175 0
59 12 140 0 175 0
59 12 141 0 175 0
59 12 142 0 175 0
59 12 143 0 175 0
59 12 144 0 175 0
59 12 145 0 175 0
59 12 146 0 175 0
59 12 147 0 175 0
59 12 148 0 175 0
59 12 149 0 175 0
59 12 150 0 175 0
59 12 151 0 175 0
59 12 152 0 175 0
59 13 141 0 175 0
59 13 142 0 175 0
59 13 143 0 175 0
59 13 145 0 175 0
59 13 146 0 175 0
59 13 148 0 175 0
59 13 149 0 175 0
59 13 150 0 175 0
59 13 151 0 175 0
59 13 152 0 175 0
59 13 153 0 175 0
59 13 154 0 175 0
59 14 142 0 175 0
59 14 143 0 175 0
59 14 146 0 175 0
59 14 147 0 175 0
59 14 148 0 175 0
59 14 149 0 175 0
59 14 150 0 175 0
59 14 152 0 175 0
59 14 153 0 175 0
59 14 154 0 175 0
59 14 156 0 175 0
59 15 144 0 175 0
59 15 145 0 175 0
59 15 147 0 175 0
59 15 148 0 175 0
59 15 149 0 175 0
59 15 150 0 175 0
59 15 151 0 175 0
59 15 154 0 175 0
59 15 155 0 175 0
59 15 156 0 175 0
59 16 146 0 175 0
59 16 147 0 175 0
59 16 148 0 175 0
59 16 149 0 175 0
59 17 144 0 175 0
59 17 145 0 175 0
59 17 146 0 175 0
59 17 148 0 175 0
59 17 149 0 175 0
59 17 150 0 175 0
59 18 144 0 175 0
59 18 145 0 175 0
59 18 146 0 175 0
59 18 148 0 175 0
59 18 149 0 175 0
59 18 150 0 175 0
59 19 147 0 175 0
59 19 148 0 175 0
59 19 149 0 175 0
59 19 150 0 175 0
59 20 147 0 175 0
59 21 129 0 175 0
59 21 141 0 175 0
60 0 126 255 120 50
60 0 127 255 120 50
60 0 129 0 175 0
60 0 132 0 175 0
60 0 133 0 175 0
60 0 134 0 175 0
60 0 139 0 175 0
60 0 140 0 175 0
60 0 141 150 240 80
60 0 142 150 240 80
60 0 143 150 240 80
60 0 144 150 240 80
60 0 145 150 240 80
60 0 146 150 240 80
60 0 147 150 240 80
60 0 148 150 240 80
60 0 149 150 240 80
60 0 150 150 240 80
60 0 151 150 240 80
60 0 152 150 240 80
60 0 153 150 240 80
60 0 154 150 240 80
60 0 155 150 240 80
60 0 156 255 0 255
60 0 157 255 0 255
60 0 158 255 0 255
60 0 159 255 0 255
60 0 160 255 0 255
60 0 161 255 0 255
60 0 162 255 0 255
60 0 163 255 0 255
60 0 164 255 0 255
60 0 165 255 0 255
60 0 166 255 0 255
60 0 167 255 0 255
60 0 168 255 0 255
60 0 169 255 0 255
60 0 170 255 0 255
60 0 171 255 0 255
60 0 172 255 0 255
60 0 173 255 0 255
60 0 174 255 0 255
60 0 175 255 0 255
60 0 176 255 0 255
60 0 177 255 0 255
60 1 125 255 120 50
60 1 126 255 120 50
60 1 127 255 120 50
60 1 128 0 175 0
60 1 129 0 175 0
60 1 130 0 175 0
60 1 132 0 175 0
60 1 133 0 175 0
60 1 134 0 175 0
60 1 135 0 175 0
60 1 136 0 175 0
60 1 137 0 175 0
60 1 138 0 175 0
60 1 139 0 175 0
60 1 140 0 175 0
60 1 141 0 175 0
60 1 142 0 175 0
60 1 143 0 175 0
60 1 144 0 175 0
60 1 145 0 175 0
60 1 146 0 175 0
60 1 147 0 175 0
60 1 148 0 175 0
60 1 149 150 240 80
60 1 150 150 240 80
60 1 151 150 240 80
60 1 152 150 240 80
60 1 153 150 240 80
60 1 154 150 240 80
60 1 155 150 240 80
60 1 156 150 240 80
60 1 167 255 0 255
60 1 170 255 0 255
60 1 171 255 0 255
60 1 172 255 0 255
60 1 173 255 0 255
60 1 174 255 0 255
60 1 175 255 0 255
60 1 176 255 0 255
60 1 177 255 0 255
60 2 126 255 120 50
60 2 127 255 120 50
60 2 128 255 120 50
60 2 129 0 175 0
60 2 130 0 175 0
60 2 131 0 175 0
60 2 132 0 175 0
60 2 133 0 175 0
60 2 134 0 175 0
60 2 135 0 175 0
60 2 136 0 175 0
60 2 137 0 175 0
60 2 138 0 175 0
60 2 139 0 175 0
60 2 140 0 175 0
60 2 141 0 175 0
60 2 142 0 175 0
60 2 143 0 175 0
60 2 144 0 175 0
60 2 145 0 175 0
60 2 146 0 175 0
60 2 147 0 175 0
60 2 167 255 0 255
60 2 176 255 0 255
60 3 126 255 120 50
60 3 130 0 175 0
60 3 131 0 175 0
60 3 132 0 175 0
60 3 133 0 175 0
60 3 134 0 175 0
60 3 135 0 175 0
60 3 136 0 175 0
60 3 137 0 175 0
60 3 138 0 175 0
60 3 139 0 175 0
60 3 140 0 175 0
60 3 141 0 175 0
60 3 142 0 175 0
60 3 143 0 175 0
60 3 144 0 175 0
60 3 145 0 175 0
60 3 147 0 175 0
60 4 126 255 120 50
60 4 127 255 120 50
60 4 129 0 175 0
60 4 130 0 175 0
60 4 133 0 175 0
60 4 134 0 175 0
60 4 135 0 175 0
60 4 136 0 175 0
60 4 137 0 175 0
60 4 138 0 175 0
60 4 139 0 175 0
60 4 140 0 175 0
60 4 141 0 175 0
60 4 142 0 175 0
60 4 143 0 175 0
60 4 144 0 175 0
60 4 145 0 175 0
60 4 146 0 175 0
60 4 147 0 175 0
60 4 157 0 175 0
60 5 125 255 120 50
60 5 126 255 120 50
60 5 127 255 120 50
60 5 128 255 120 50
60 5 129 0 175 0
60 5 130 0 175 0
60 5 131 0 175 0
60 5 132 0 175 0
60 5 133 0 175 0
60 5 134 0 175 0
60 5 135 0 175 0
60 5 136 0 175 0
60 5 137 0 175 0
60 5 138 0 175 0
60 5 139 0 175 0
60 5 140 0 175 0
60 5 141 0 175 0
60 5 142 0 175 0
60 5 143 0 175 0
60 5 144 0 175 0
60 5 145 0 175 0
60 5 146 0 175 0
60 5 147 0 175 0
60 5 148 0 175 0
60 5 149 0 175 0
60 5 150 0 175 0
60 5 151 0 175 0
60 6 126 255 120 50
60 6 127 255 120 50
60 6 128 255 120 50
60 6 130 0 175 0
60 6 131 0 175 0
60 6 132 0 175 0
60 6 133 0 175 0
60 6 134 0 175 0
60 6 135 0 175 0
60 6 136 0 175 0
60 6 137 0 175 0
60 6 138 0 175 0
60 6 139 0 175 0
60 6 140 0 175 0
60 6 141 0 175 0
60 6 142 0 175 0
60 6 143 0 175 0
60 6 144 0 175 0
60 6 145 0 175 0
60 6 146 0 175 0
60 6 147 0 175 0
60 6 148 0 175 0
60 6 149 0 175 0
60 6 150 0 175 0
60 7 126 255 120 50
60 7 127 255 120 50
60 7 132 0 175 0
60 7 133 0 175 0
60 7 134 0 175 0
60 7 135 0 175 0
60 7 136 0 175 0
60 7 137 0 175 0
60 7 138 0 175 0
60 7 139 0 175 0
60 7 140 0 175 0
60 7 141 0 175 0
60 7 142 0 175 0
60 7 143 0 175 0
60 7 144 0 175 0
60 7 145 0 175 0
60 7 146 0 175 0
60 7 147 0 175 0
60 7 148 0 175 0
60 7 149 0 175 0
60 7 150 0 175 0
60 7 151 0 175 0
60 8 123 255 120 50
60 8 126 255 120 50
60 8 133 0 175 0
60 8 134 0 175 0
60 8 135 0 175 0
60 8 136 0 175 0
60 8 137 0 175 0
60 8 138 0 175 0
60 8 139 0 175 0
60 8 140 0 175 0
60 8 141 0 175 0
60 8 142 0 175 0
60 8 143 0 175 0
60 8 144 0 175 0
60 8 145 0 175 0
60 8 146 0 175 0
60 8 147 0 175 0
60 8 148 0 175 0
60 8 149 0 175 0
60 8 150 0 175 0
60 8 151 0 175 0
60 9 126 255 120 50
60 9 127 255 120 50
60 9 131 0 175 0
60 9 132 0 175 0
60 9 133 0 175 0
60 9 134 0 175 0
60 9 135 0 175 0
60 9 136 0 175 0
60 9 137 0 175 0
60 9 138 0 175 0
60 9 139 0 175 0
60 9 140 0 175 0
60 9 141 0 175 0
60 9 142 0 175 0
60 9 143 0 175 0
60 9 144 0 175 0
60 9 145 0 175 0
60 9 146 0 175 0
60 9 147 0 175 0
60 9 148 0 175 0
60 9 149 0 175 0
60 9 151 0 175 0
60 10 125 255 120 50
60 10 126 255 120 50
60 10 127 255 120 50
60 10 128 0 175 0
60 10 131 0 175 0
60 10 132 0 175 0
60 10 133 0 175 0
60 10 134 0 175 0
60 10 135 0 175 0
60 10 136 0 175 0
60 10 137 0 175 0
60 10 138 0 175 0
60 10 139 0 175 0
60 10 140 0 175 0
60 10 141 0 175 0
60 10 142 0 175 0
60 10 143 0 175 0
60 10 144 0 175 0
60 10 145 0 175 0
60 10 146 0 175 0
60 10 147 0 175 0
60 10 148 0 175 0
60 10 149 0 175 0
60 10 150 0 175 0
60 10 152 0 175 0
60 11 125 255 120 50
60 11 126 255 120 50
60 11 127 255 120 50
60 11 132 0 175 0
60 11 134 0 175 0
60 11 135 0 175 0
60 11 136 0 175 0
60 11 137 0 175 0
60 11 138 0 175 0
60 11 139 0 175 0
60 11 140 0 175 0
60 11 141 0 175 0
60 11 142 0 175 0
60 11 143 0 175 0
60 11 144 0 175 0
60 11 145 0 175 0
60 11 146 0 175 0
60 11 147 0 175 0
60 11 148 0 175 0
60 11 149 0 175 0
60 11 150 0 175 0
60 11 151 0 175 0
60 11 153 0 175 0
60 12 141 0 175 0
60 12 142 0 175 0
60 12 143 0 175 0
60 12 145 0 175 0
60 12 146 0 175 0
60 12 147 0 175 0
60 12 148 0 175 0
60 12 149 0 175 0
60 12 150 0 175 0
60 12 151 0 175 0
60 12 152 0 175 0
60 13 140 0 175 0
60 13 141 0 175 0
60 13 143 0 175 0
60 13 144 0 175 0
60 13 145 0 175 0
60 13 146 0 175 0
60 13 147 0 175 0
60 13 148 0 175 0
60 13 149 0 175 0
60 13 150 0 175 0
60 13 151 0 175 0
60 13 152 0 175 0
60 13 153 0 175 0
60 13 154 0 175 0
60 13 155 0 175 0
60 14 143 0 175 0
60 14 144 0 175 0
60 14 145 0 175 0
60 14 146 0 175 0
60 14 147 0 175 0
60 14 148 0 175 0
60 14 149 0 175 0
60 14 150 0 175 0
60 14 151 0 175 0
60 14 152 0 175 0
60 14 153 0 175 0
60 14 154 0 175 0
60 14 155 0 175 0
60 15 144 0 175 0
60 15 145 0 175 0
60 15 146 0 175 0
60 15 148 0 175 0
60 15 149 0 175 0
60 15 153 0 175 0
60 15 154 0 175 0
60 15 155 0 175 0
60 15 156 0 175 0
60 16 146 0 175 0
60 16 147 0 175 0
60 16 148 0 175 0
60 16 149 0 175 0
60 17 133 0 175 0
60 17 145 0 175 0
60 17 146 0 175 0
60 17 148 0 175 0
60 17 149 0 175 0
60 17 150 0 175 0
60 18 132 0 175 0
60 18 139 0 175 0
60 18 147 0 175 0
60 18 148 0 175 0
60 18 149 0 175 0
60 19 143 0 175 0
60 19 146 0 175 0
60 19 147 0 175 0
60 19 149 0 175 0
60 19 150 0 175 0
60 20 149 0 175 0
60 20 150 0 175 0
60 21 129 0 175 0
60 21 144 0 175 0
60 21 150 0 175 0
60 22 144 0 175 0
61 0 128 255 120 50
61 0 130 0 175 0
61 0 133 0 175 0
61 0 134 0 175 0
61 0 135 0 175 0
61 0 137 0 175 0
61 0 140 0 175 0
61 0 141 150 240 80
61 0 142 150 240 80
61 0 143 0 175 0
61 0 144 0 175 0
61 0 145 150 240 80
61 0 146 150 240 80
61 0 147 150 240 80
61 0 148 150 240 80
61 0 149 150 240 80
61 0 150 150 240 80
61 0 151 150 240 80
61 0 152 150 240 80
61 0 153 150 240 80
61 0 154 150 240 80
61 0 155 150 240 80
61 0 156 150 240 80
61 0 157 150 240 80
61 0 158 255 0 255
61 0 159 255 0 255
61 0 160 255 0 255
61 0 161 255 0 255
61 0 162 255 0 255
61 0 163 255 0 255
61 0 164 255 0 255
61 0 165 255 0 255
61 0 166 255 0 255
61 0 167 255 0 255
61 0 168 255 0 255
61 0 169 255 0 255
61 0 170 255 0 255
61 0 171 255 0 255
61 0 172 255 0 255
61 0 173 255 0 255
61 0 174 255 0 255
61 0 175 255 0 255
61 0 176 255 0 255
61 0 177 255 0 255
61 0 178 255 0 255
61 1 127 255 120 50
61 1 128 255 120 50
61 1 129 255 120 50
61 1 130 0 175 0
61 1 131 0 175 0
61 1 132 0 175 0
61 1 133 0 175 0
61 1 134 0 175 0
61 1 135 0 175 0
61 1 136 0 175 0
61 1 137 0 175 0
61 1 138 0 175 0
61 1 139 0 175 0
61 1 140 0 175 0
61 1 141 0 175 0
61 1 142 0 175 0
61 1 143 0 175 0
61 1 144 0 175 0
61 1 145 0 175 0
61 1 146 0 175 0
61 1 147 0 175 0
61 1 148 0 175 0
61 1 149 150 240 80
61 1 150 150 240 80
61 1 151 150 240 80
61 1 152 150 240 80
61 1 153 150 240 80
61 1 154 150 240 80
61 1 155 150 240 80
61 1 156 150 240 80
61 1 157 150 240 80
61 1 158 255 0 255
61 1 166 255 0 255
61 1 167 255 0 255
61 1 171 255 0 255
61 1 172 255 0 255
61 1 173 255 0 255
61 1 174 255 0 255
61 1 175 255 0 255
61 1 176 255 0 255
61 1 177 255 0 255
61 1 178 255 0 255
61 2 127 255 120 50
61 2 130 0 175 0
61 2 131 0 175 0
61 2 132 0 175 0
61 2 133 0 175 0
61 2 134 0 175 0
61 2 135 0 175 0
61 2 136 0 175 0
61 2 137 0 175 0
61 2 138 0 175 0
61 2 139 0 175 0
61 2 140 0 175 0
61 2 141 0 175 0
61 2 142 0 175 0
61 2 143 0 175 0
61 2 144 0 175 0
61 2 145 0 175 0
61 2 146 0 175 0
61 2 147 0 175 0
61 2 155 0 175 0
61 2 165 255 0 255
61 2 166 255 0 255
61 2 175 255 0 255
61 3 131 0 175 0
61 3 132 0 175 0
61 3 133 0 175 0
61 3 134 0 175 0
61 3 135 0 175 0
61 3 136 0 175 0
61 3 137 0 175 0
61 3 138 0 175 0
61 3 139 0 175 0
61 3 140 0 175 0
61 3 141 0 175 0
61 3 142 0 175 0
61 3 143 0 175 0
61 3 144 0 175 0
61 3 145 0 175 0
61 3 146 0 175 0
61 3 147 0 175 0
61 3 149 0 175 0
61 4 128 255 120 50
61 4 129 0 175 0
61 4 130 0 175 0
61 4 133 0 175 0
61 4 134 0 175 0
61 4 135 0 175 0
61 4 136 0 175 0
61 4 137 0 175 0
61 4 138 0 175 0
61 4 139 0 175 0
61 4 140 0 175 0
61 4 141 0 175 0
61 4 142 0 175 0
61 4 143 0 175 0
61 4 144 0 175 0
61 4 145 0 175 0
61 4 146 0 175 0
61 4 147 0 175 0
61 4 149 0 175 0
61 4 150 0 175 0
61 4 155 0 175 0
61 4 157 0 175 0
61 5 127 255 120 50
61 5 128 255 120 50
61 5 129 0 175 0
61 5 130 0 175 0
61 5 131 0 175 0
61 5 132 0 175 0
61 5 133 0 175 0
61 5 134 0 175 0
61 5 135 0 175 0
61 5 138 0 175 0
61 5 139 0 175 0
61 5 140 0 175 0
61 5 141 0 175 0
61 5 142 0 175 0
61 5 143 0 175 0
61 5 144 0 175 0
61 5 145 0 175 0
61 5 146 0 175 0
61 5 147 0 175 0
61 5 148 0 175 0
61 5 149 0 175 0
61 5 150 0 175 0
61 6 127 255 120 50
61 6 128 255 120 50
61 6 129 255 120 50
61 6 130 0 175 0
61 6 131 0 175 0
61 6 132 0 175 0
61 6 133 0 175 0
61 6 134 0 175 0
61 6 135 0 175 0
61 6 136 0 175 0
61 6 137 0 175 0
61 6 138 0 175 0
61 6 139 0 175 0
61 6 140 0 175 0
61 6 141 0 175 0
61 6 142 0 175 0
61 6 143 0 175 0
61 6 144 0 175 0
61 6 145 0 175 0
61 6 146 0 175 0
61 6 147 0 175 0
61 6 148 0 175 0
61 6 149 0 175 0
61 6 150 0 175 0
61 6 151 0 175 0
61 6 153 0 175 0
61 7 127 255 120 50
61 7 129 255 120 50
61 7 130 0 175 0
61 7 133 0 175 0
61 7 134 0 175 0
61 7 135 0 175 0
61 7 136 0 175 0
61 7 137 0 175 0
61 7 138 0 175 0
61 7 139 0 175 0
61 7 140 0 175 0
61 7 141 0 175 0
61 7 142 0 175 0
61 7 143 0 175 0
61 7 144 0 175 0
61 7 145 0 175 0
61 7 146 0 175 0
61 7 147 0 175 0
61 7 148 0 175 0
61 7 149 0 175 0
61 7 150 0 175 0
61 7 151 0 175 0
61 7 153 0 175 0
61 8 127 255 120 50
61 8 128 255 120 50
61 8 129 255 120 50
61 8 130 0 175 0
61 8 131 0 175 0
61 8 135 0 175 0
61 8 136 0 175 0
61 8 137 0 175 0
61 8 138 0 175 0
61 8 139 0 175 0
61 8 140 0 175 0
61 8 141 0 175 0
61 8 142 0 175 0
61 8 143 0 175 0
61 8 144 0 175 0
61 8 145 0 175 0
61 8 146 0 175 0
61 8 147 0 175 0
61 8 148 0 175 0
61 8 149 0 175 0
61 8 150 0 175 0
61 8 151 0 175 0
61 8 152 0 175 0
61 9 126 255 120 50
61 9 127 255 120 50
61 9 128 255 120 50
61 9 129 255 120 50
61 9 130 0 175 0
61 9 131 0 175 0
61 9 132 0 175 0
61 9 133 0 175 0
61 9 134 0 175 0
61 9 135 0 175 0
61 9 136 0 175 0
61 9 137 0 175 0
61 9 138 0 175 0
61 9 139 0 175 0
61 9 140 0 175 0
61 9 141 0 175 0
61 9 142 0 175 0
61 9 143 0 175 0
61 9 144 0 175 0
61 9 145 0 175 0
61 9 146 0 175 0
61 9 147 0 175 0
61 9 148 0 175 0
61 9 149 0 175 0
61 9 150 0 175 0
61 9 151 0 175 0
61 9 152 0 175 0
61 9 153 0 175 0
61 10 126 255 120 50
61 10 127 255 120 50
61 10 128 255 120 50
61 10 129 255 120 50
61 10 130 0 175 0
61 10 131 0 175 0
61 10 132 0 175 0
61 10 133 0 175 0
61 10 134 0 175 0
61 10 135 0 175 0
61 10 136 0 175 0
61 10 137 0 175 0
61 10 138 0 175 0
61 10 139 0 175 0
61 10 140 0 175 0
61 10 141 0 175 0
61 10 142 0 175 0
61 10 143 0 175 0
61 10 144 0 175 0
61 10 145 0 175 0
61 10 146 0 175 0
61 10 147 0 175 0
61 10 148 0 175 0
61 10 149 0 175 0
61 10 150 0 175 0
61 10 151 0 175 0
61 10 152 0 175 0
61 10 153 0 175 0
61 11 127 255 120 50
61 11 128 255 120 50
61 11 132 0 175 0
61 11 134 0 175 0
61 11 135 0 175 0
61 11 138 0 175 0
61 11 139 0 175 0
61 11 140 0 175 0
61 11 141 0 175 0
61 11 142 0 175 0
61 11 143 0 175 0
61 11 144 0 175 0
61 11 145 0 175 0
61 11 146 0 175 0
61 11 147 0 175 0
61 11 148 0 175 0
61 11 149 0 175 0
61 11 150 0 175 0
61 11 151 0 175 0
61 11 152 0 175 0
61 11 153 0 175 0
61 11 154 0 175 0
61 12 137 0 175 0
61 12 141 0 175 0
61 12 142 0 175 0
61 12 143 0 175 0
61 12 146 0 175 0
61 12 147 0 175 0
61 12 148 0 175 0
61 12 149 0 175 0
61 12 150 0 175 0
61 12 151 0 175 0
61 12 152 0 175 0
61 13 141 0 175 0
61 13 144 0 175 0
61 13 145 0 175 0
61 13 147 0 175 0
61 13 148 0 175 0
61 13 149 0 175 0
61 13 150 0 175 0
61 13 151 0 175 0
61 13 152 0 175 0
61 13 153 0 175 0
61 13 154 0 175 0
61 13 155 0 175 0
61 14 147 0 175 0
61 14 148 0 175 0
61 14 149 0 175 0
61 14 150 0 175 0
61 14 151 0 175 0
61 14 153 0 175 0
61 14 154 0 175 0
61 15 148 0 175 0
61 15 149 0 175 0
61 15 150 0 175 0
61 15 153 0 175 0
61 15 154 0 175 0
61 15 155 0 175 0
61 16 146 0 175 0
61 16 149 0 175 0
61 16 150 0 175 0
61 16 153 0 175 0
61 17 145 0 175 0
61 17 146 0 175 0
61 17 150 0 175 0
61 17 151 0 175 0
61 18 143 0 175 0
61 18 144 0 175 0
61 18 147 0 175 0
61 18 150 0 175 0
61 19 142 0 175 0
61 19 145 0 175 0
61 19 149 0 175 0
61 19 150 0 175 0
61 20 144 0 175 0
61 20 145 0 175 0
61 20 149 0 175 0
61 20 150 0 175 0
61 21 147 0 175 0
62 0 129 255 120 50
62 0 134 0 175 0
62 0 135 0 175 0
62 0 140 0 175 0
62 0 141 0 175 0
62 0 142 0 175 0
62 0 143 0 175 0
62 0 144 0 175 0
62 0 145 150 240 80
62 0 146 150 240 80
62 0 147 150 240 80
62 0 148 150 240 80
62 0 149 150 240 80
62 0 150 150 240 80
62 0 151 150 240 80
62 0 152 150 240 80
62 0 153 150 240 80
62 0 154 150 240 80
62 0 155 150 240 80
62 0 156 150 240 80
62 0 157 150 240 80
62 0 158 150 240 80
62 0 159 0 175 0
62 0 160 0 175 0
62 0 161 255 0 255
62 0 162 255 0 255
62 0 163 255 0 255
62 0 164 255 0 255
62 0 165 255 0 255
62 0 166 255 0 255
62 0 167 255 0 255
62 0 168 255 0 255
62 0 169 255 0 255
62 0 170 255 0 255
62 0 171 255 0 255
62 0 172 255 0 255
62 0 173 255 0 255
62 0 174 255 0 255
62 0 175 255 0 255
62 0 176 255 0 255
62 0 177 255 0 255
62 0 178 255 0 255
62 0 179 255 0 255
62 1 130 255 120 50
62 1 131 255 120 50
62 1 133 0 175 0
62 1 134 0 175 0
62 1 135 0 175 0
62 1 136 0 175 0
62 1 138 0 175 0
62 1 139 0 175 0
62 1 140 0 175 0
62 1 141 0 175 0
62 1 142 0 175 0
62 1 143 0 175 0
62 1 144 0 175 0
62 1 145 0 175 0
62 1 146 0 175 0
62 1 147 0 175 0
62 1 148 0 175 0
62 1 149 0 175 0
62 1 150 150 240 80
62 1 151 150 240 80
62 1 152 150 240 80
62 1 153 150 240 80
62 1 154 150 240 80
62 1 155 150 240 80
62 1 156 150 240 80
62 1 157 150 240 80
62 1 158 150 240 80
62 1 159 0 175 0
62 1 167 255 0 255
62 1 168 255 0 255
62 1 171 255 0 255
62 1 172 255 0 255
62 1 173 255 0 255
62 1 174 255 0 255
62 1 175 255 0 255
62 1 176 255 0 255
62 1 177 255 0 255
62 1 178 255 0 255
62 1 179 255 0 255
62 2 128 255 120 50
62 2 129 255 120 50
62 2 130 255 120 50
62 2 132 0 175 0
62 2 133 0 175 0
62 2 134 0 175 0
62 2 135 0 175 0
62 2 136 0 175 0
62 2 137 0 175 0
62 2 138 0 175 0
62 2 139 0 175 0
62 2 140 0 175 0
62 2 141 0 175 0
62 2 142 0 175 0
62 2 143 0 175 0
62 2 144 0 175 0
62 2 145 0 175 0
62 2 146 0 175 0
62 2 147 0 175 0
62 2 156 0 175 0
62 2 163 255 0 255
62 2 164 255 0 255
62 2 165 255 0 255
62 2 174 255 0 255
62 2 175 255 0 255
62 3 133 0 175 0
62 3 134 0 175 0
62 3 135 0 175 0
62 3 136 0 175 0
62 3 137 0 175 0
62 3 138 0 175 0
62 3 139 0 175 0
62 3 140 0 175 0
62 3 141 0 175 0
62 3 142 0 175 0
62 3 143 0 175 0
62 3 144 0 175 0
62 3 145 0 175 0
62 3 146 0 175 0
62 3 147 0 175 0
62 4 128 255 120 50
62 4 129 255 120 50
62 4 131 0 175 0
62 4 132 0 175 0
62 4 133 0 175 0
62 4 134 0 175 0
62 4 135 0 175 0
62 4 136 0 175 0
62 4 137 0 175 0
62 4 138 0 175 0
62 4 139 0 175 0
62 4 140 0 175 0
62 4 141 0 175 0
62 4 142 0 175 0
62 4 143 0 175 0
62 4 144 0 175 0
62 4 145 0 175 0
62 4 146 0 175 0
62 4 147 0 175 0
62 4 148 0 175 0
62 4 149 0 175 0
62 5 129 255 120 50
62 5 130 255 120 50
62 5 131 0 175 0
62 5 134 0 175 0
62 5 135 0 175 0
62 5 136 0 175 0
62 5 137 0 175 0
62 5 139 0 175 0
62 5 140 0 175 0
62 5 141 0 175 0
62 5 142 0 175 0
62 5 143 0 175 0
62 5 144 0 175 0
62 5 145 0 175 0
62 5 146 0 175 0
62 5 147 0 175 0
62 5 148 0 175 0
62 5 149 0 175 0
62 6 127 255 120 50
62 6 128 255 120 50
62 6 129 255 120 50
62 6 130 255 120 50
62 6 131 255 120 50
62 6 133 0 175 0
62 6 134 0 175 0
62 6 137 0 175 0
62 6 138 0 175 0
62 6 139 0 175 0
62 6 140 0 175 0
62 6 141 0 175 0
62 6 142 0 175 0
62 6 143 0 175 0
62 6 144 0 175 0
62 6 145 0 175 0
62 6 146 0 175 0
62 6 147 0 175 0
62 6 148 0 175 0
62 6 149 0 175 0
62 6 150 0 175 0
62 6 151 0 175 0
62 6 152 0 175 0
62 7 129 255 120 50
62 7 130 255 120 50
62 7 133 0 175 0
62 7 135 0 175 0
62 7 136 0 175 0
62 7 137 0 175 0
62 7 138 0 175 0
62 7 139 0 175 0
62 7 140 0 175 0
62 7 141 0 175 0
62 7 142 0 175 0
62 7 143 0 175 0
62 7 144 0 175 0
62 7 145 0 175 0
62 7 146 0 175 0
62 7 147 0 175 0
62 7 148 0 175 0
62 7 149 0 175 0
62 7 150 0 175 0
62 7 151 0 175 0
62 7 152 0 175 0
62 8 129 255 120 50
62 8 136 0 175 0
62 8 137 0 175 0
62 8 138 0 175 0
62 8 139 0 175 0
62 8 140 0 175 0
62 8 141 0 175 0
62 8 142 0 175 0
62 8 143 0 175 0
62 8 144 0 175 0
62 8 145 0 175 0
62 8 146 0 175 0
62 8 147 0 175 0
62 8 148 0 175 0
62 8 149 0 175 0
62 8 150 0 175 0
62 8 151 0 175 0
62 8 152 0 175 0
62 8 153 0 175 0
62 8 154 0 175 0
62 9 128 255 120 50
62 9 129 255 120 50
62 9 131 0 175 0
62 9 132 0 175 0
62 9 133 0 175 0
62 9 134 0 175 0
62 9 135 0 175 0
62 9 136 0 175 0
62 9 137 0 175 0
62 9 138 0 175 0
62 9 139 0 175 0
62 9 140 0 175 0
62 9 141 0 175 0
62 9 142 0 175 0
62 9 143 0 175 0
62 9 144 0 175 0
62 9 145 0 175 0
62 9 146 0 175 0
62 9 147 0 175 0
62 9 148 0 175 0
62 9 149 0 175 0
62 9 150 0 175 0
62 9 151 0 175 0
62 9 152 0 175 0
62 9 153 0 175 0
62 9 154 0 175 0
62 10 127 255 120 50
62 10 128 255 120 50
62 10 129 255 120 50
62 10 130 255 120 50
62 10 131 0 175 0
62 10 132 0 175 0
62 10 133 0 175 0
62 10 134 0 175 0
62 10 135 0 175 0
62 10 136 0 175 0
62 10 137 0 175 0
62 10 138 0 175 0
62 10 139 0 175 0
62 10 140 0 175 0
62 10 141 0 175 0
62 10 142 0 175 0
62 10 143 0 175 0
62 10 144 0 175 0
62 10 145 0 175 0
62 10 146 0 175 0
62 10 147 0 175 0
62 10 148 0 175 0
62 10 149 0 175 0
62 10 150 0 175 0
62 10 151 0 175 0
62 10 152 0 175 0
62 10 153 0 175 0
62 10 154 0 175 0
62 11 131 0 175 0
62 11 132 0 175 0
62 11 133 0 175 0
62 11 134 0 175 0
62 11 135 0 175 0
62 11 136 0 175 0
62 11 138 0 175 0
62 11 139 0 175 0
62 11 140 0 175 0
62 11 141 0 175 0
62 11 142 0 175 0
62 11 144 0 175 0
62 11 145 0 175 0
62 11 146 0 175 0
62 11 147 0 175 0
62 11 148 0 175 0
62 11 149 0 175 0
62 11 150 0 175 0
62 11 151 0 175 0
62 11 152 0 175 0
62 11 153 0 175 0
62 11 154 0 175 0
62 12 136 0 175 0
62 12 137 0 175 0
62 12 141 0 175 0
62 12 142 0 175 0
62 12 143 0 175 0
62 12 144 0 175 0
62 12 146 0 175 0
62 12 147 0 175 0
62 12 148 0 175 0
62 12 149 0 175 0
62 12 150 0 175 0
62 12 151 0 175 0
62 12 152 0 175 0
62 13 147 0 175 0
62 13 148 0 175 0
62 13 149 0 175 0
62 13 150 0 175 0
62 13 151 0 175 0
62 13 152 0 175 0
62 13 154 0 175 0
62 13 155 0 175 0
62 13 156 0 175 0
62 13 157 0 175 0
62 14 147 0 175 0
62 14 148 0 175 0
62 14 149 0 175 0
62 14 150 0 175 0
62 14 153 0 175 0
62 14 154 0 175 0
62 14 155 0 175 0
62 15 149 0 175 0
62 15 150 0 175 0
62 15 152 0 175 0
62 15 153 0 175 0
62 15 154 0 175 0
62 15 155 0 175 0
62 15 156 0 175 0
62 16 147 0 175 0
62 16 149 0 175 0
62 16 150 0 175 0
62 16 151 0 175 0
62 16 152 0 175 0
62 16 153 0 175 0
62 16 155 0 175 0
62 17 150 0 175 0
62 17 151 0 175 0
62 18 145 0 175 0
62 18 149 0 175 0
62 18 151 0 175 0
62 19 143 0 175 0
62 19 144 0 175 0
62 19 145 0 175 0
62 19 149 0 175 0
62 19 150 0 175 0
62 19 152 0 175 0
62 20 141 0 175 0
62 20 143 0 175 0
62 20 144 0 175 0
62 20 145 0 175 0
62 20 152 0 175 0
62 21 143 0 175 0
62 22 145 0 175 0
63 0 130 255 120 50
63 0 132 0 175 0
63 0 133 0 175 0
63 0 141 0 175 0
63 0 142 0 175 0
63 0 143 0 175 0
63 0 144 0 175 0
63 0 145 150 240 80
63 0 146 150 240 80
63 0 147 150 240 80
63 0 148 150 240 80
63 0 149 150 240 80
63 0 150 150 240 80
63 0 151 150 240 80
63 0 152 150 240 80
63 0 153 150 240 80
63 0 154 150 240 80
63 0 155 150 240 80
63 0 156 150 240 80
63 0 157 150 240 80
63 0 158 150 240 80
63 0 159 0 175 0
63 0 160 255 0 255
63 0 161 255 0 255
63 0 162 255 0 255
63 0 163 255 0 255
63 0 164 255 0 255
63 0 165 255 0 255
63 0 166 255 0 255
63 0 167 255 0 255
63 0 168 255 0 255
63 0 169 255 0 255
63 0 170 255 0 255
63 0 171 255 0 255
63 0 172 255 0 255
63 0 173 255 0 255
63 0 174 255 0 255
63 0 175 255 0 255
63 0 176 255 0 255
63 0 177 255 0 255
63 0 178 255 0 255
63 0 179 255 0 255
63 0 180 255 0 255
63 1 129 255 120 50
63 1 130 255 120 50
63 1 131 255 120 50
63 1 132 255 120 50
63 1 135 0 175 0
63 1 138 0 175 0
63 1 141 0 175 0
63 1 142 0 175 0
63 1 143 0 175 0
63 1 144 0 175 0
63 1 145 0 175 0
63 1 146 0 175 0
63 1 147 0 175 0
63 1 148 0 175 0
63 1 151 150 240 80
63 1 152 150 240 80
63 1 153 150 240 80
63 1 154 150 240 80
63 1 155 150 240 80
63 1 156 150 240 80
63 1 157 150 240 80
63 1 158 150 240 80
63 1 159 0 175 0
63 1 160 0 175 0
63 1 173 255 0 255
63 1 174 255 0 255
63 1 175 255 0 255
63 1 176 255 0 255
63 1 177 255 0 255
63 1 178 255 0 255
63 1 179 255 0 255
63 1 180 255 0 255
63 2 130 255 120 50
63 2 131 255 120 50
63 2 132 0 175 0
63 2 133 0 175 0
63 2 134 0 175 0
63 2 135 0 175 0
63 2 138 0 175 0
63 2 139 0 175 0
63 2 140 0 175 0
63 2 141 0 175 0
63 2 142 0 175 0
63 2 143 0 175 0
63 2 144 0 175 0
63 2 145 0 175 0
63 2 146 0 175 0
63 2 147 0 175 0
63 2 148 0 175 0
63 2 154 0 175 0
63 2 157 0 175 0
63 2 162 255 0 255
63 2 163 255 0 255
63 3 132 255 120 50
63 3 134 0 175 0
63 3 135 0 175 0
63 3 136 0 175 0
63 3 137 0 175 0
63 3 138 0 175 0
63 3 139 0 175 0
63 3 140 0 175 0
63 3 141 0 175 0
63 3 142 0 175 0
63 3 143 0 175 0
63 3 144 0 175 0
63 3 145 0 175 0
63 3 146 0 175 0
63 3 147 0 175 0
63 3 149 0 175 0
63 3 152 0 175 0
63 3 154 0 175 0
63 3 155 0 175 0
63 4 129 255 120 50
63 4 130 255 120 50
63 4 132 0 175 0
63 4 134 0 175 0
63 4 136 0 175 0
63 4 137 0 175 0
63 4 138 0 175 0
63 4 139 0 175 0
63 4 140 0 175 0
63 4 141 0 175 0
63 4 142 0 175 0
63 4 143 0 175 0
63 4 144 0 175 0
63 4 145 0 175 0
63 4 146 0 175 0
63 4 147 0 175 0
63 4 151 0 175 0
63 4 153 0 175 0
63 4 159 0 175 0
63 4 161 0 175 0
63 5 129 255 120 50
63 5 130 255 120 50
63 5 132 255 120 50
63 5 133 0 175 0
63 5 134 0 175 0
63 5 135 0 175 0
63 5 136 0 175 0
63 5 137 0 175 0
63 5 138 0 175 0
63 5 139 0 175 0
63 5 140 0 175 0
63 5 141 0 175 0
63 5 142 0 175 0
63 5 143 0 175 0
63 5 144 0 175 0
63 5 145 0 175 0
63 5 146 0 175 0
63 5 147 0 175 0
63 5 148 0 175 0
63 5 149 0 175 0
63 5 150 0 175 0
63 5 154 0 175 0
63 5 155 0 175 0
63 5 156 0 175 0
63 6 129 255 120 50
63 6 130 255 120 50
63 6 131 255 120 50
63 6 132 0 175 0
63 6 133 0 175 0
63 6 134 0 175 0
63 6 137 0 175 0
63 6 138 0 175 0
63 6 139 0 175 0
63 6 140 0 175 0
63 6 141 0 175 0
63 6 142 0 175 0
63 6 143 0 175 0
63 6 144 0 175 0
63 6 145 0 175 0
63 6 146 0 175 0
63 6 147 0 175 0
63 6 148 0 175 0
63 6 149 0 175 0
63 6 150 0 175 0
63 6 151 0 175 0
63 6 152 0 175 0
63 6 153 0 175 0
63 6 155 0 175 0
63 7 130 255 120 50
63 7 133 0 175 0
63 7 136 0 175 0
63 7 137 0 175 0
63 7 138 0 175 0
63 7 139 0 175 0
63 7 140 0 175 0
63 7 141 0 175 0
63 7 142 0 175 0
63 7 143 0 175 0
63 7 144 0 175 0
63 7 145 0 175 0
63 7 146 0 175 0
63 7 147 0 175 0
63 7 148 0 175 0
63 7 149 0 175 0
63 7 150 0 175 0
63 7 151 0 175 0
63 7 152 0 175 0
63 7 153 0 175 0
63 8 129 255 120 50
63 8 133 0 175 0
63 8 135 0 175 0
63 8 136 0 175 0
63 8 137 0 175 0
63 8 138 0 175 0
63 8 139 0 175 0
63 8 140 0 175 0
63 8 141 0 175 0
63 8 142 0 175 0
63 8 143 0 175 0
63 8 144 0 175 0
63 8 145 0 175 0
63 8 146 0 175 0
63 8 147 0 175 0
63 8 148 0 175 0
63 8 149 0 175 0
63 8 150 0 175 0
63 8 151 0 175 0
63 8 152 0 175 0
63 8 153 0 175 0
63 8 154 0 175 0
63 9 128 255 120 50
63 9 129 255 120 50
63 9 130 255 120 50
63 9 131 255 120 50
63 9 132 0 175 0
63 9 133 0 175 0
63 9 134 0 175 0
63 9 135 0 175 0
63 9 136 0 175 0
63 9 137 0 175 0
63 9 138 0 175 0
63 9 139 0 175 0
63 9 140 0 175 0
63 9 141 0 175 0
63 9 142 0 175 0
63 9 143 0 175 0
63 9 144 0 175 0
63 9 145 0 175 0
63 9 146 0 175 0
63 9 147 0 175 0
63 9 148 0 175 0
63 9 149 0 175 0
63 9 150 0 175 0
63 9 151 0 175 0
63 9 152 0 175 0
63 9 153 0 175 0
63 9 154 0 175 0
63 9 157 0 175 0
63 10 128 255 120 50
63 10 130 255 120 50
63 10 131 255 120 50
63 10 132 0 175 0
63 10 133 0 175 0
63 10 134 0 175 0
63 10 135 0 175 0
63 10 136 0 175 0
63 10 137 0 175 0
63 10 138 0 175 0
63 10 139 0 175 0
63 10 140 0 175 0
63 10 141 0 175 0
63 10 142 0 175 0
63 10 143 0 175 0
63 10 144 0 175 0
63 10 145 0 175 0
63 10 146 0 175 0
63 10 147 0 175 0
63 10 148 0 175 0
63 10 149 0 175 0
63 10 150 0 175 0
63 10 151 0 175 0
63 10 152 0 175 0
63 10 153 0 175 0
63 10 154 0 175 0
63 11 131 255 120 50
63 11 132 0 175 0
63 11 133 0 175 0
63 11 134 0 175 0
63 11 135 0 175 0
63 11 136 0 175 0
