ply
format ascii 1.0
element vertex 2252
property float x
property float y
property float z
property uchar red
property uchar green
property uchar blue
end_header
41 9 107 100 150 245
41 9 112 100 150 245
41 9 113 100 150 245
41 9 114 100 150 245
41 9 115 100 150 245
41 9 116 100 150 245
41 9 117 100 150 245
41 9 118 100 150 245
41 9 119 100 150 245
41 9 120 100 150 245
41 10 103 100 150 245
41 10 104 100 150 245
41 10 115 100 150 245
41 10 116 100 150 245
41 10 117 100 150 245
41 10 118 100 150 245
41 10 119 100 150 245
41 10 121 100 150 245
41 11 103 100 150 245
41 11 115 100 150 245
41 11 116 100 150 245
41 11 117 100 150 245
41 11 118 100 150 245
41 12 102 100 150 245
41 12 114 100 150 245
41 12 115 100 150 245
42 0 114 100 150 245
42 0 118 100 150 245
42 0 119 100 150 245
42 0 120 100 150 245
42 0 121 100 150 245
42 0 123 100 150 245
42 0 125 100 150 245
42 0 131 100 150 245
42 0 132 100 150 245
42 0 133 100 150 245
42 0 134 100 150 245
42 0 135 100 150 245
42 0 136 100 150 245
42 0 139 100 150 245
42 0 140 100 150 245
42 0 141 100 150 245
42 0 143 100 150 245
42 0 144 100 150 245
42 0 145 100 150 245
42 0 147 100 150 245
42 0 148 100 150 245
42 0 153 100 150 245
42 0 154 100 150 245
42 0 157 100 150 245
42 0 158 100 150 245
42 0 159 100 150 245
42 0 161 100 150 245
42 0 162 100 150 245
42 0 163 100 150 245
42 0 167 100 150 245
42 0 168 100 150 245
42 0 174 100 150 245
42 0 175 100 150 245
42 0 176 100 150 245
42 0 177 100 150 245
42 0 188 100 150 245
42 0 189 100 150 245
42 0 193 100 150 245
42 0 194 100 150 245
42 0 201 100 150 245
42 0 205 100 150 245
42 1 117 100 150 245
42 1 118 100 150 245
42 1 119 100 150 245
42 1 120 100 150 245
42 1 126 100 150 245
42 1 127 100 150 245
42 1 128 100 150 245
42 1 129 100 150 245
42 1 130 100 150 245
42 1 131 100 150 245
42 1 132 100 150 245
42 1 173 100 150 245
42 2 110 100 150 245
42 2 113 100 150 245
42 2 116 100 150 245
42 2 117 100 150 245
42 2 118 100 150 245
42 2 119 100 150 245
42 2 120 100 150 245
42 2 121 100 150 245
42 2 173 100 150 245
42 3 109 100 150 245
42 3 114 100 150 245
42 3 115 100 150 245
42 3 116 100 150 245
42 3 118 100 150 245
42 3 119 100 150 245
42 3 120 100 150 245
42 3 121 100 150 245
42 3 122 100 150 245
42 3 173 100 150 245
42 4 105 100 150 245
42 4 117 100 150 245
42 4 118 100 150 245
42 4 119 100 150 245
42 4 120 100 150 245
42 4 121 100 150 245
42 4 173 100 150 245
42 4 174 100 150 245
42 5 116 100 150 245
42 5 117 100 150 245
42 5 118 100 150 245
42 5 119 100 150 245
42 5 120 100 150 245
42 5 121 100 150 245
42 5 176 100 150 245
42 5 177 100 150 245
42 5 185 100 150 245
42 6 110 100 150 245
42 6 116 100 150 245
42 6 117 100 150 245
42 6 118 100 150 245
42 6 119 100 150 245
42 6 120 100 150 245
42 7 111 100 150 245
42 7 112 100 150 245
42 7 113 100 150 245
42 7 117 100 150 245
42 7 118 100 150 245
42 7 119 100 150 245
42 7 120 100 150 245
42 7 121 100 150 245
42 7 181 100 150 245
42 7 182 100 150 245
42 7 184 100 150 245
42 8 112 100 150 245
42 8 114 100 150 245
42 8 116 100 150 245
42 8 117 100 150 245
42 8 118 100 150 245
42 8 119 100 150 245
42 8 120 100 150 245
42 8 121 100 150 245
42 9 102 100 150 245
42 9 103 100 150 245
42 9 113 100 150 245
42 9 114 100 150 245
42 9 115 100 150 245
42 9 116 100 150 245
42 9 117 100 150 245
42 9 118 100 150 245
42 9 119 100 150 245
42 9 120 100 150 245
42 10 103 100 150 245
42 10 109 100 150 245
42 10 114 100 150 245
42 10 115 100 150 245
42 10 116 100 150 245
42 10 117 100 150 245
42 10 118 100 150 245
42 10 119 100 150 245
42 10 120 100 150 245
42 11 103 100 150 245
42 11 115 100 150 245
42 11 116 100 150 245
42 11 117 100 150 245
42 12 115 100 150 245
42 12 116 100 150 245
42 12 117 100 150 245
42 12 125 100 150 245
43 0 113 100 150 245
43 0 118 100 150 245
43 0 119 100 150 245
43 0 120 100 150 245
43 0 121 100 150 245
43 0 122 100 150 245
43 0 123 100 150 245
43 0 126 100 150 245
43 0 127 100 150 245
43 0 132 100 150 245
43 0 133 100 150 245
43 0 134 100 150 245
43 0 137 100 150 245
43 0 138 100 150 245
43 0 139 100 150 245
43 0 142 100 150 245
43 0 143 100 150 245
43 0 145 100 150 245
43 0 146 100 150 245
43 0 147 100 150 245
43 0 151 100 150 245
43 0 152 100 150 245
43 0 155 100 150 245
43 0 156 100 150 245
43 0 157 100 150 245
43 0 159 100 150 245
43 0 160 100 150 245
43 0 161 100 150 245
43 0 165 100 150 245
43 0 166 100 150 245
43 0 167 100 150 245
43 0 173 100 150 245
43 0 174 100 150 245
43 0 193 100 150 245
43 0 200 100 150 245
43 0 201 100 150 245
43 0 205 100 150 245
43 1 117 100 150 245
43 1 118 100 150 245
43 1 119 100 150 245
43 1 121 100 150 245
43 1 122 100 150 245
43 1 126 100 150 245
43 1 127 100 150 245
43 1 130 100 150 245
43 1 131 100 150 245
43 1 132 100 150 245
43 1 133 100 150 245
43 2 110 100 150 245
43 2 116 100 150 245
43 2 118 100 150 245
43 2 119 100 150 245
43 2 120 100 150 245
43 2 121 100 150 245
43 2 122 100 150 245
43 3 119 100 150 245
43 3 120 100 150 245
43 3 121 100 150 245
43 3 122 100 150 245
43 3 123 100 150 245
43 3 174 100 150 245
43 4 114 100 150 245
43 4 116 100 150 245
43 4 117 100 150 245
43 4 118 100 150 245
43 4 119 100 150 245
43 4 120 100 150 245
43 4 121 100 150 245
43 4 122 100 150 245
43 4 123 100 150 245
43 4 175 100 150 245
43 4 176 100 150 245
43 5 117 100 150 245
43 5 119 100 150 245
43 5 120 100 150 245
43 5 121 100 150 245
43 5 122 100 150 245
43 5 123 100 150 245
43 5 176 100 150 245
43 5 177 100 150 245
43 6 116 100 150 245
43 6 117 100 150 245
43 6 118 100 150 245
43 6 119 100 150 245
43 6 120 100 150 245
43 6 121 100 150 245
43 6 122 100 150 245
43 6 123 100 150 245
43 6 126 100 150 245
43 6 180 100 150 245
43 6 184 100 150 245
43 7 112 100 150 245
43 7 113 100 150 245
43 7 114 100 150 245
43 7 116 100 150 245
43 7 117 100 150 245
43 7 118 100 150 245
43 7 119 100 150 245
43 7 120 100 150 245
43 7 121 100 150 245
43 7 122 100 150 245
43 7 124 100 150 245
43 7 125 100 150 245
43 7 126 100 150 245
43 7 181 100 150 245
43 7 184 100 150 245
43 7 185 100 150 245
43 8 112 100 150 245
43 8 113 100 150 245
43 8 115 100 150 245
43 8 118 100 150 245
43 8 119 100 150 245
43 8 120 100 150 245
43 8 121 100 150 245
43 8 122 100 150 245
43 9 113 100 150 245
43 9 116 100 150 245
43 9 117 100 150 245
43 9 118 100 150 245
43 9 119 100 150 245
43 9 120 100 150 245
43 9 122 100 150 245
43 9 123 100 150 245
43 10 114 100 150 245
43 10 115 100 150 245
43 10 117 100 150 245
43 10 118 100 150 245
43 10 122 100 150 245
43 11 115 100 150 245
43 11 118 100 150 245
43 11 119 100 150 245
43 11 120 100 150 245
43 11 121 100 150 245
43 11 122 100 150 245
43 11 126 100 150 245
43 12 115 100 150 245
43 12 116 100 150 245
43 12 117 100 150 245
43 12 121 100 150 245
43 12 122 100 150 245
43 12 125 100 150 245
44 0 118 100 150 245
44 0 119 100 150 245
44 0 120 100 150 245
44 0 121 100 150 245
44 0 122 100 150 245
44 0 125 100 150 245
44 0 126 100 150 245
44 0 127 100 150 245
44 0 128 100 150 245
44 0 134 100 150 245
44 0 135 100 150 245
44 0 136 100 150 245
44 0 137 100 150 245
44 0 140 100 150 245
44 0 141 100 150 245
44 0 144 100 150 245
44 0 145 100 150 245
44 0 150 100 150 245
44 0 151 100 150 245
44 0 154 100 150 245
44 0 155 100 150 245
44 0 158 100 150 245
44 0 159 100 150 245
44 0 163 100 150 245
44 0 164 100 150 245
44 0 165 100 150 245
44 0 170 100 150 245
44 0 171 100 150 245
44 0 172 100 150 245
44 0 173 100 150 245
44 0 192 100 150 245
44 0 193 100 150 245
44 0 200 100 150 245
44 0 204 100 150 245
44 0 205 100 150 245
44 0 210 100 150 245
44 1 118 100 150 245
44 1 119 100 150 245
44 1 120 100 150 245
44 1 121 100 150 245
44 1 122 100 150 245
44 1 123 100 150 245
44 1 128 100 150 245
44 1 129 100 150 245
44 1 130 100 150 245
44 1 131 100 150 245
44 1 132 100 150 245
44 1 133 100 150 245
44 1 134 100 150 245
44 2 109 100 150 245
44 2 120 100 150 245
44 2 122 100 150 245
44 2 123 100 150 245
44 3 119 100 150 245
44 3 120 100 150 245
44 3 121 100 150 245
44 3 122 100 150 245
44 3 123 100 150 245
44 3 124 100 150 245
44 4 114 100 150 245
44 4 117 100 150 245
44 4 118 100 150 245
44 4 120 100 150 245
44 4 121 100 150 245
44 4 122 100 150 245
44 4 123 100 150 245
44 4 124 100 150 245
44 4 176 100 150 245
44 5 120 100 150 245
44 5 121 100 150 245
44 5 122 100 150 245
44 5 123 100 150 245
44 5 177 100 150 245
44 6 116 100 150 245
44 6 120 100 150 245
44 6 121 100 150 245
44 6 122 100 150 245
44 6 123 100 150 245
44 6 124 100 150 245
44 6 125 100 150 245
44 6 126 100 150 245
44 6 184 100 150 245
44 7 112 100 150 245
44 7 113 100 150 245
44 7 115 100 150 245
44 7 116 100 150 245
44 7 118 100 150 245
44 7 121 100 150 245
44 7 122 100 150 245
44 7 123 100 150 245
44 7 124 100 150 245
44 7 180 100 150 245
44 7 181 100 150 245
44 7 184 100 150 245
44 8 114 100 150 245
44 8 116 100 150 245
44 8 117 100 150 245
44 8 118 100 150 245
44 8 119 100 150 245
44 8 120 100 150 245
44 8 121 100 150 245
44 8 122 100 150 245
44 8 123 100 150 245
44 8 127 100 150 245
44 8 128 100 150 245
44 9 112 100 150 245
44 9 116 100 150 245
44 9 119 100 150 245
44 9 120 100 150 245
44 9 121 100 150 245
44 9 122 100 150 245
44 9 123 100 150 245
44 9 126 100 150 245
44 10 114 100 150 245
44 10 115 100 150 245
44 10 117 100 150 245
44 10 118 100 150 245
44 10 119 100 150 245
44 10 121 100 150 245
44 10 122 100 150 245
44 10 123 100 150 245
44 10 124 100 150 245
44 10 125 100 150 245
44 10 126 100 150 245
44 11 114 100 150 245
44 11 115 100 150 245
44 11 118 100 150 245
44 11 119 100 150 245
44 11 120 100 150 245
44 11 121 100 150 245
44 11 122 100 150 245
44 11 123 100 150 245
44 11 125 100 150 245
44 11 126 100 150 245
44 11 127 100 150 245
44 11 128 100 150 245
44 11 130 100 150 245
44 12 116 100 150 245
44 12 117 100 150 245
44 12 118 100 150 245
44 12 119 100 150 245
44 12 121 100 150 245
44 12 122 100 150 245
44 12 124 100 150 245
44 12 125 100 150 245
44 12 126 100 150 245
44 12 128 100 150 245
44 12 129 100 150 245
45 0 107 100 150 245
45 0 111 100 150 245
45 0 120 100 150 245
45 0 121 100 150 245
45 0 122 100 150 245
45 0 123 100 150 245
45 0 124 100 150 245
45 0 125 100 150 245
45 0 126 100 150 245
45 0 127 100 150 245
45 0 135 100 150 245
45 0 136 100 150 245
45 0 137 100 150 245
45 0 138 100 150 245
45 0 139 100 150 245
45 0 140 100 150 245
45 0 142 100 150 245
45 0 143 100 150 245
45 0 144 100 150 245
45 0 149 100 150 245
45 0 150 100 150 245
45 0 153 100 150 245
45 0 154 100 150 245
45 0 156 100 150 245
45 0 157 100 150 245
45 0 161 100 150 245
45 0 162 100 150 245
45 0 163 100 150 245
45 0 169 100 150 245
45 0 170 100 150 245
45 0 192 100 150 245
45 0 199 100 150 245
45 0 200 100 150 245
45 0 204 100 150 245
45 0 209 100 150 245
45 0 210 100 150 245
45 1 121 100 150 245
45 1 122 100 150 245
45 1 123 100 150 245
45 1 128 100 150 245
45 1 129 100 150 245
45 1 130 100 150 245
45 1 131 100 150 245
45 1 132 100 150 245
45 1 133 100 150 245
45 1 134 100 150 245
45 1 135 100 150 245
45 1 136 100 150 245
45 2 108 100 150 245
45 2 110 100 150 245
45 2 120 100 150 245
45 2 122 100 150 245
45 2 123 100 150 245
45 3 107 100 150 245
45 3 117 100 150 245
45 3 119 100 150 245
45 3 121 100 150 245
45 3 122 100 150 245
45 3 123 100 150 245
45 3 124 100 150 245
45 3 129 100 150 245
45 3 132 100 150 245
45 4 109 100 150 245
45 4 119 100 150 245
45 4 120 100 150 245
45 4 121 100 150 245
45 4 122 100 150 245
45 4 123 100 150 245
45 4 124 100 150 245
45 4 129 100 150 245
45 4 131 100 150 245
45 4 132 100 150 245
45 4 176 100 150 245
45 4 177 100 150 245
45 5 109 100 150 245
45 5 122 100 150 245
45 5 123 100 150 245
45 5 125 100 150 245
45 5 128 100 150 245
45 5 129 100 150 245
45 5 132 100 150 245
45 5 176 100 150 245
45 5 177 100 150 245
45 5 178 100 150 245
45 5 179 100 150 245
45 6 122 100 150 245
45 6 123 100 150 245
45 6 124 100 150 245
45 6 125 100 150 245
45 6 126 100 150 245
45 6 131 100 150 245
45 6 132 100 150 245
45 6 178 100 150 245
45 6 179 100 150 245
45 7 112 100 150 245
45 7 121 100 150 245
45 7 122 100 150 245
45 7 123 100 150 245
45 7 124 100 150 245
45 7 126 100 150 245
45 7 127 100 150 245
45 7 128 100 150 245
45 7 130 100 150 245
45 7 132 100 150 245
45 7 179 100 150 245
45 7 180 100 150 245
45 7 181 100 150 245
45 7 184 100 150 245
45 8 117 100 150 245
45 8 118 100 150 245
45 8 119 100 150 245
45 8 120 100 150 245
45 8 121 100 150 245
45 8 122 100 150 245
45 8 123 100 150 245
45 8 124 100 150 245
45 8 126 100 150 245
45 8 127 100 150 245
45 8 128 100 150 245
45 8 130 100 150 245
45 8 186 100 150 245
45 9 112 100 150 245
45 9 114 100 150 245
45 9 115 100 150 245
45 9 116 100 150 245
45 9 117 100 150 245
45 9 119 100 150 245
45 9 120 100 150 245
45 9 121 100 150 245
45 9 122 100 150 245
45 9 123 100 150 245
45 9 126 100 150 245
45 9 127 100 150 245
45 10 113 100 150 245
45 10 114 100 150 245
45 10 115 100 150 245
45 10 117 100 150 245
45 10 118 100 150 245
45 10 119 100 150 245
45 10 120 100 150 245
45 10 121 100 150 245
45 10 122 100 150 245
45 10 123 100 150 245
45 10 124 100 150 245
45 10 125 100 150 245
45 10 126 100 150 245
45 10 127 100 150 245
45 10 128 100 150 245
45 10 131 100 150 245
45 11 115 100 150 245
45 11 116 100 150 245
45 11 117 100 150 245
45 11 118 100 150 245
45 11 119 100 150 245
45 11 120 100 150 245
45 11 121 100 150 245
45 11 122 100 150 245
45 11 123 100 150 245
45 11 124 100 150 245
45 11 125 100 150 245
45 11 126 100 150 245
45 11 128 100 150 245
45 11 129 100 150 245
45 11 130 100 150 245
45 11 134 100 150 245
45 12 115 100 150 245
45 12 116 100 150 245
45 12 117 100 150 245
45 12 118 100 150 245
45 12 119 100 150 245
45 12 120 100 150 245
45 12 121 100 150 245
45 12 122 100 150 245
45 12 123 100 150 245
45 12 124 100 150 245
45 12 125 100 150 245
45 12 126 100 150 245
45 12 128 100 150 245
45 12 129 100 150 245
45 12 130 100 150 245
45 12 131 100 150 245
45 12 132 100 150 245
45 12 133 100 150 245
45 12 134 100 150 245
46 0 108 100 150 245
46 0 122 100 150 245
46 0 123 100 150 245
46 0 124 100 150 245
46 0 125 100 150 245
46 0 126 100 150 245
46 0 137 100 150 245
46 0 138 100 150 245
46 0 139 100 150 245
46 0 141 100 150 245
46 0 142 100 150 245
46 0 148 100 150 245
46 0 149 100 150 245
46 0 152 100 150 245
46 0 153 100 150 245
46 0 155 100 150 245
46 0 156 100 150 245
46 0 160 100 150 245
46 0 161 100 150 245
46 0 166 100 150 245
46 0 167 100 150 245
46 0 168 100 150 245
46 0 169 100 150 245
46 0 177 100 150 245
46 0 178 100 150 245
46 0 198 100 150 245
46 0 199 100 150 245
46 0 203 100 150 245
46 0 204 100 150 245
46 0 209 100 150 245
46 1 108 100 150 245
46 1 122 100 150 245
46 1 123 100 150 245
46 1 124 100 150 245
46 1 125 100 150 245
46 1 128 100 150 245
46 1 129 100 150 245
46 1 130 100 150 245
46 1 131 100 150 245
46 1 133 100 150 245
46 2 108 100 150 245
46 2 109 100 150 245
46 2 122 100 150 245
46 2 123 100 150 245
46 2 124 100 150 245
46 2 125 100 150 245
46 2 130 100 150 245
46 2 132 100 150 245
46 3 119 100 150 245
46 3 122 100 150 245
46 3 123 100 150 245
46 3 124 100 150 245
46 3 125 100 150 245
46 3 126 100 150 245
46 3 129 100 150 245
46 3 130 100 150 245
46 3 131 100 150 245
46 3 132 100 150 245
46 4 108 100 150 245
46 4 120 100 150 245
46 4 121 100 150 245
46 4 122 100 150 245
46 4 123 100 150 245
46 4 124 100 150 245
46 4 125 100 150 245
46 4 129 100 150 245
46 4 130 100 150 245
46 4 132 100 150 245
46 5 108 100 150 245
46 5 109 100 150 245
46 5 120 100 150 245
46 5 122 100 150 245
46 5 123 100 150 245
46 5 124 100 150 245
46 5 125 100 150 245
46 5 128 100 150 245
46 5 176 100 150 245
46 6 108 100 150 245
46 6 109 100 150 245
46 6 122 100 150 245
46 6 123 100 150 245
46 6 124 100 150 245
46 6 125 100 150 245
46 6 128 100 150 245
46 6 131 100 150 245
46 6 132 100 150 245
46 6 179 100 150 245
46 6 182 100 150 245
46 7 109 100 150 245
46 7 111 100 150 245
46 7 123 100 150 245
46 7 124 100 150 245
46 7 126 100 150 245
46 7 127 100 150 245
46 7 128 100 150 245
46 7 130 100 150 245
46 7 180 100 150 245
46 7 184 100 150 245
46 8 121 100 150 245
46 8 122 100 150 245
46 8 124 100 150 245
46 8 125 100 150 245
46 8 126 100 150 245
46 8 127 100 150 245
46 8 136 100 150 245
46 9 116 100 150 245
46 9 119 100 150 245
46 9 120 100 150 245
46 9 121 100 150 245
46 9 122 100 150 245
46 9 123 100 150 245
46 9 124 100 150 245
46 9 126 100 150 245
46 9 127 100 150 245
46 9 128 100 150 245
46 9 129 100 150 245
46 10 113 100 150 245
46 10 114 100 150 245
46 10 115 100 150 245
46 10 116 100 150 245
46 10 117 100 150 245
46 10 118 100 150 245
46 10 119 100 150 245
46 10 120 100 150 245
46 10 121 100 150 245
46 10 122 100 150 245
46 10 123 100 150 245
46 10 124 100 150 245
46 10 126 100 150 245
46 10 127 100 150 245
46 10 128 100 150 245
46 10 129 100 150 245
46 10 130 100 150 245
46 10 131 100 150 245
46 11 114 100 150 245
46 11 115 100 150 245
46 11 116 100 150 245
46 11 117 100 150 245
46 11 118 100 150 245
46 11 119 100 150 245
46 11 120 100 150 245
46 11 121 100 150 245
46 11 122 100 150 245
46 11 123 100 150 245
46 11 124 100 150 245
46 11 125 100 150 245
46 11 126 100 150 245
46 11 127 100 150 245
46 11 128 100 150 245
46 11 129 100 150 245
46 11 130 100 150 245
46 11 131 100 150 245
46 11 132 100 150 245
46 11 133 100 150 245
46 11 134 100 150 245
46 12 114 100 150 245
46 12 115 100 150 245
46 12 116 100 150 245
46 12 117 100 150 245
46 12 118 100 150 245
46 12 119 100 150 245
46 12 120 100 150 245
46 12 121 100 150 245
46 12 122 100 150 245
46 12 123 100 150 245
46 12 124 100 150 245
46 12 125 100 150 245
46 12 126 100 150 245
46 12 128 100 150 245
46 12 130 100 150 245
46 12 131 100 150 245
46 12 132 100 150 245
47 0 121 100 150 245
47 0 122 100 150 245
47 0 123 100 150 245
47 0 124 100 150 245
47 0 125 100 150 245
47 0 126 100 150 245
47 0 128 100 150 245
47 0 138 100 150 245
47 0 139 100 150 245
47 0 140 100 150 245
47 0 141 100 150 245
47 0 146 100 150 245
47 0 147 100 150 245
47 0 148 100 150 245
47 0 151 100 150 245
47 0 152 100 150 245
47 0 154 100 150 245
47 0 155 100 150 245
47 0 159 100 150 245
47 0 160 100 150 245
47 0 165 100 150 245
47 0 166 100 150 245
47 0 176 100 150 245
47 0 177 100 150 245
47 0 198 100 150 245
47 0 199 100 150 245
47 0 203 100 150 245
47 0 208 100 150 245
47 0 209 100 150 245
47 1 123 100 150 245
47 1 124 100 150 245
47 1 125 100 150 245
47 1 126 100 150 245
47 1 127 100 150 245
47 1 132 100 150 245
47 1 136 100 150 245
47 1 137 100 150 245
47 1 216 100 150 245
47 2 109 100 150 245
47 2 123 100 150 245
47 2 124 100 150 245
47 2 125 100 150 245
47 2 129 100 150 245
47 2 130 100 150 245
47 2 131 100 150 245
47 2 132 100 150 245
47 2 133 100 150 245
47 3 109 100 150 245
47 3 110 100 150 245
47 3 117 100 150 245
47 3 122 100 150 245
47 3 123 100 150 245
47 3 124 100 150 245
47 3 125 100 150 245
47 3 126 100 150 245
47 3 128 100 150 245
47 3 129 100 150 245
47 3 130 100 150 245
47 3 131 100 150 245
47 3 132 100 150 245
47 4 122 100 150 245
47 4 123 100 150 245
47 4 124 100 150 245
47 4 125 100 150 245
47 4 126 100 150 245
47 4 130 100 150 245
47 4 132 100 150 245
47 4 134 100 150 245
47 5 122 100 150 245
47 5 123 100 150 245
47 5 124 100 150 245
47 5 125 100 150 245
47 5 126 100 150 245
47 5 186 100 150 245
47 5 187 100 150 245
47 6 109 100 150 245
47 6 111 100 150 245
47 6 118 100 150 245
47 6 122 100 150 245
47 6 123 100 150 245
47 6 124 100 150 245
47 6 125 100 150 245
47 6 127 100 150 245
47 6 128 100 150 245
47 6 130 100 150 245
47 6 131 100 150 245
47 6 132 100 150 245
47 6 182 100 150 245
47 7 123 100 150 245
47 7 124 100 150 245
47 7 125 100 150 245
47 7 126 100 150 245
47 7 127 100 150 245
47 7 128 100 150 245
47 7 130 100 150 245
47 7 133 100 150 245
47 7 181 100 150 245
47 7 182 100 150 245
47 7 184 100 150 245
47 8 121 100 150 245
47 8 122 100 150 245
47 8 123 100 150 245
47 8 124 100 150 245
47 8 125 100 150 245
47 8 126 100 150 245
47 8 127 100 150 245
47 8 128 100 150 245
47 8 129 100 150 245
47 8 130 100 150 245
47 8 135 100 150 245
47 8 136 100 150 245
47 9 111 100 150 245
47 9 120 100 150 245
47 9 121 100 150 245
47 9 122 100 150 245
47 9 123 100 150 245
47 9 124 100 150 245
47 9 125 100 150 245
47 9 126 100 150 245
47 9 127 100 150 245
47 9 128 100 150 245
47 9 130 100 150 245
47 10 114 100 150 245
47 10 117 100 150 245
47 10 118 100 150 245
47 10 119 100 150 245
47 10 120 100 150 245
47 10 121 100 150 245
47 10 122 100 150 245
47 10 123 100 150 245
47 10 124 100 150 245
47 10 125 100 150 245
47 10 126 100 150 245
47 10 127 100 150 245
47 10 129 100 150 245
47 10 130 100 150 245
47 10 131 100 150 245
47 10 132 100 150 245
47 10 133 100 150 245
47 10 135 100 150 245
47 11 113 100 150 245
47 11 116 100 150 245
47 11 117 100 150 245
47 11 119 100 150 245
47 11 120 100 150 245
47 11 121 100 150 245
47 11 122 100 150 245
47 11 124 100 150 245
47 11 125 100 150 245
47 11 126 100 150 245
47 11 127 100 150 245
47 11 128 100 150 245
47 11 129 100 150 245
47 11 130 100 150 245
47 11 131 100 150 245
47 11 132 100 150 245
47 11 133 100 150 245
47 11 134 100 150 245
47 11 135 100 150 245
47 11 138 100 150 245
47 12 114 100 150 245
47 12 115 100 150 245
47 12 116 100 150 245
47 12 117 100 150 245
47 12 118 100 150 245
47 12 119 100 150 245
47 12 120 100 150 245
47 12 121 100 150 245
47 12 122 100 150 245
47 12 124 100 150 245
47 12 125 100 150 245
47 12 126 100 150 245
47 12 127 100 150 245
47 12 128 100 150 245
47 12 130 100 150 245
47 12 131 100 150 245
47 12 132 100 150 245
47 12 133 100 150 245
48 0 120 100 150 245
48 0 127 100 150 245
48 0 128 100 150 245
48 0 139 100 150 245
48 0 140 100 150 245
48 0 145 100 150 245
48 0 146 100 150 245
48 0 150 100 150 245
48 0 151 100 150 245
48 0 153 100 150 245
48 0 154 100 150 245
48 0 158 100 150 245
48 0 159 100 150 245
48 0 163 100 150 245
48 0 164 100 150 245
48 0 165 100 150 245
48 0 175 100 150 245
48 0 176 100 150 245
48 0 180 100 150 245
48 0 197 100 150 245
48 0 198 100 150 245
48 0 202 100 150 245
48 0 203 100 150 245
48 0 208 100 150 245
48 0 214 100 150 245
48 0 215 100 150 245
48 1 123 100 150 245
48 1 124 100 150 245
48 1 125 100 150 245
48 1 126 100 150 245
48 1 127 100 150 245
48 1 131 100 150 245
48 1 132 100 150 245
48 1 133 100 150 245
48 1 134 100 150 245
48 1 135 100 150 245
48 1 136 100 150 245
48 1 137 100 150 245
48 1 138 100 150 245
48 1 139 100 150 245
48 1 215 100 150 245
48 1 216 100 150 245
48 1 217 100 150 245
48 2 123 100 150 245
48 2 124 100 150 245
48 2 125 100 150 245
48 2 128 100 150 245
48 2 129 100 150 245
48 2 130 100 150 245
48 2 131 100 150 245
48 2 132 100 150 245
48 2 133 100 150 245
48 2 134 100 150 245
48 3 113 100 150 245
48 3 123 100 150 245
48 3 124 100 150 245
48 3 125 100 150 245
48 3 128 100 150 245
48 3 129 100 150 245
48 3 130 100 150 245
48 3 131 100 150 245
48 3 132 100 150 245
48 3 133 100 150 245
48 3 134 100 150 245
48 4 118 100 150 245
48 4 122 100 150 245
48 4 123 100 150 245
48 4 124 100 150 245
48 4 125 100 150 245
48 4 126 100 150 245
48 4 129 100 150 245
48 4 130 100 150 245
48 4 131 100 150 245
48 4 132 100 150 245
48 4 133 100 150 245
48 4 134 100 150 245
48 4 135 100 150 245
48 5 122 100 150 245
48 5 123 100 150 245
48 5 124 100 150 245
48 5 125 100 150 245
48 5 126 100 150 245
48 5 127 100 150 245
48 5 128 100 150 245
48 5 129 100 150 245
48 5 132 100 150 245
48 5 133 100 150 245
48 5 135 100 150 245
48 5 136 100 150 245
48 5 186 100 150 245
48 6 111 100 150 245
48 6 122 100 150 245
48 6 123 100 150 245
48 6 124 100 150 245
48 6 125 100 150 245
48 6 127 100 150 245
48 6 128 100 150 245
48 6 129 100 150 245
48 6 130 100 150 245
48 6 132 100 150 245
48 7 110 100 150 245
48 7 111 100 150 245
48 7 113 100 150 245
48 7 123 100 150 245
48 7 124 100 150 245
48 7 125 100 150 245
48 7 126 100 150 245
48 7 127 100 150 245
48 7 128 100 150 245
48 7 129 100 150 245
48 7 130 100 150 245
48 7 135 100 150 245
48 7 184 100 150 245
48 8 121 100 150 245
48 8 123 100 150 245
48 8 124 100 150 245
48 8 125 100 150 245
48 8 126 100 150 245
48 8 127 100 150 245
48 8 128 100 150 245
48 8 129 100 150 245
48 8 130 100 150 245
48 8 131 100 150 245
48 8 135 100 150 245
48 8 136 100 150 245
48 9 118 100 150 245
48 9 120 100 150 245
48 9 121 100 150 245
48 9 123 100 150 245
48 9 124 100 150 245
48 9 125 100 150 245
48 9 126 100 150 245
48 9 127 100 150 245
48 9 128 100 150 245
48 9 129 100 150 245
48 9 130 100 150 245
48 9 131 100 150 245
48 9 132 100 150 245
48 9 133 100 150 245
48 9 137 100 150 245
48 10 117 100 150 245
48 10 119 100 150 245
48 10 120 100 150 245
48 10 121 100 150 245
48 10 122 100 150 245
48 10 123 100 150 245
48 10 124 100 150 245
48 10 125 100 150 245
48 10 128 100 150 245
48 10 129 100 150 245
48 10 130 100 150 245
48 10 131 100 150 245
48 10 132 100 150 245
48 10 133 100 150 245
48 10 134 100 150 245
48 10 135 100 150 245
48 10 137 100 150 245
48 10 138 100 150 245
48 11 116 100 150 245
48 11 117 100 150 245
48 11 119 100 150 245
48 11 121 100 150 245
48 11 122 100 150 245
48 11 124 100 150 245
48 11 125 100 150 245
48 11 126 100 150 245
48 11 127 100 150 245
48 11 128 100 150 245
48 11 129 100 150 245
48 11 130 100 150 245
48 11 131 100 150 245
48 11 132 100 150 245
48 11 133 100 150 245
48 11 134 100 150 245
48 11 137 100 150 245
48 11 138 100 150 245
48 11 222 100 150 245
48 12 114 100 150 245
48 12 116 100 150 245
48 12 117 100 150 245
48 12 118 100 150 245
48 12 120 100 150 245
48 12 123 100 150 245
48 12 126 100 150 245
48 12 127 100 150 245
48 12 128 100 150 245
48 12 130 100 150 245
48 12 131 100 150 245
48 12 132 100 150 245
48 12 133 100 150 245
48 12 134 100 150 245
48 12 135 100 150 245
48 12 138 100 150 245
48 12 222 100 150 245
49 0 125 100 150 245
49 0 126 100 150 245
49 0 127 100 150 245
49 0 128 100 150 245
49 0 129 100 150 245
49 0 130 100 150 245
49 0 132 100 150 245
49 0 133 100 150 245
49 0 134 100 150 245
49 0 135 100 150 245
49 0 140 100 150 245
49 0 141 100 150 245
49 0 142 100 150 245
49 0 143 100 150 245
49 0 144 100 150 245
49 0 145 100 150 245
49 0 149 100 150 245
49 0 150 100 150 245
49 0 152 100 150 245
49 0 153 100 150 245
49 0 157 100 150 245
49 0 158 100 150 245
49 0 162 100 150 245
49 0 163 100 150 245
49 0 173 100 150 245
49 0 174 100 150 245
49 0 178 100 150 245
49 0 179 100 150 245
49 0 180 100 150 245
49 0 197 100 150 245
49 0 202 100 150 245
49 0 207 100 150 245
49 0 208 100 150 245
49 0 213 100 150 245
49 0 214 100 150 245
49 1 124 100 150 245
49 1 125 100 150 245
49 1 126 100 150 245
49 1 127 100 150 245
49 1 129 100 150 245
49 1 130 100 150 245
49 1 131 100 150 245
49 1 132 100 150 245
49 1 133 100 150 245
49 1 134 100 150 245
49 1 139 100 150 245
49 1 140 100 150 245
49 1 141 100 150 245
49 1 215 100 150 245
49 1 216 100 150 245
49 1 217 100 150 245
49 2 124 100 150 245
49 2 125 100 150 245
49 2 126 100 150 245
49 2 127 100 150 245
49 2 128 100 150 245
49 2 129 100 150 245
49 2 130 100 150 245
49 2 131 100 150 245
49 2 132 100 150 245
49 2 133 100 150 245
49 2 134 100 150 245
49 2 218 100 150 245
49 2 219 100 150 245
49 3 122 100 150 245
49 3 126 100 150 245
49 3 127 100 150 245
49 3 128 100 150 245
49 3 129 100 150 245
49 3 130 100 150 245
49 3 131 100 150 245
49 3 132 100 150 245
49 3 133 100 150 245
49 3 134 100 150 245
49 3 135 100 150 245
49 3 219 100 150 245
49 4 123 100 150 245
49 4 124 100 150 245
49 4 125 100 150 245
49 4 126 100 150 245
49 4 127 100 150 245
49 4 129 100 150 245
49 4 130 100 150 245
49 4 131 100 150 245
49 4 132 100 150 245
49 4 133 100 150 245
49 4 134 100 150 245
49 4 135 100 150 245
49 4 219 100 150 245
49 5 123 100 150 245
49 5 126 100 150 245
49 5 127 100 150 245
49 5 128 100 150 245
49 5 129 100 150 245
49 5 131 100 150 245
49 5 132 100 150 245
49 5 133 100 150 245
49 5 135 100 150 245
49 5 136 100 150 245
49 5 139 100 150 245
49 5 186 100 150 245
49 6 122 100 150 245
49 6 123 100 150 245
49 6 124 100 150 245
49 6 126 100 150 245
49 6 127 100 150 245
49 6 128 100 150 245
49 6 129 100 150 245
49 6 130 100 150 245
49 6 132 100 150 245
49 6 135 100 150 245
49 6 136 100 150 245
49 6 139 100 150 245
49 7 122 100 150 245
49 7 123 100 150 245
49 7 124 100 150 245
49 7 126 100 150 245
49 7 127 100 150 245
49 7 128 100 150 245
49 7 129 100 150 245
49 7 130 100 150 245
49 7 131 100 150 245
49 7 132 100 150 245
49 7 133 100 150 245
49 7 134 100 150 245
49 7 135 100 150 245
49 7 185 100 150 245
49 8 124 100 150 245
49 8 125 100 150 245
49 8 126 100 150 245
49 8 127 100 150 245
49 8 128 100 150 245
49 8 129 100 150 245
49 8 130 100 150 245
49 8 131 100 150 245
49 8 132 100 150 245
49 8 135 100 150 245
49 8 136 100 150 245
49 9 122 100 150 245
49 9 123 100 150 245
49 9 124 100 150 245
49 9 125 100 150 245
49 9 126 100 150 245
49 9 127 100 150 245
49 9 128 100 150 245
49 9 129 100 150 245
49 9 130 100 150 245
49 9 131 100 150 245
49 9 132 100 150 245
49 9 133 100 150 245
49 9 134 100 150 245
49 9 136 100 150 245
49 9 137 100 150 245
49 9 220 100 150 245
49 10 113 100 150 245
49 10 118 100 150 245
49 10 119 100 150 245
49 10 122 100 150 245
49 10 123 100 150 245
49 10 124 100 150 245
49 10 125 100 150 245
49 10 128 100 150 245
49 10 129 100 150 245
49 10 130 100 150 245
49 10 131 100 150 245
49 10 132 100 150 245
49 10 133 100 150 245
49 10 134 100 150 245
49 10 135 100 150 245
49 10 137 100 150 245
49 10 138 100 150 245
49 10 220 100 150 245
49 10 221 100 150 245
49 11 114 100 150 245
49 11 116 100 150 245
49 11 121 100 150 245
49 11 122 100 150 245
49 11 123 100 150 245
49 11 124 100 150 245
49 11 125 100 150 245
49 11 126 100 150 245
49 11 127 100 150 245
49 11 128 100 150 245
49 11 129 100 150 245
49 11 130 100 150 245
49 11 132 100 150 245
49 11 133 100 150 245
49 11 135 100 150 245
49 11 137 100 150 245
49 11 138 100 150 245
49 11 220 100 150 245
49 12 113 100 150 245
49 12 114 100 150 245
49 12 115 100 150 245
49 12 116 100 150 245
49 12 126 100 150 245
49 12 127 100 150 245
49 12 128 100 150 245
49 12 130 100 150 245
49 12 131 100 150 245
49 12 132 100 150 245
49 12 133 100 150 245
49 12 134 100 150 245
49 12 138 100 150 245
49 12 221 100 150 245
49 12 222 100 150 245
49 13 222 100 150 245
50 0 128 100 150 245
50 0 129 100 150 245
50 0 130 100 150 245
50 0 131 100 150 245
50 0 132 100 150 245
50 0 133 100 150 245
50 0 134 100 150 245
50 0 139 100 150 245
50 0 141 100 150 245
50 0 142 100 150 245
50 0 143 100 150 245
50 0 147 100 150 245
50 0 148 100 150 245
50 0 149 100 150 245
50 0 151 100 150 245
50 0 152 100 150 245
50 0 156 100 150 245
50 0 157 100 150 245
50 0 162 100 150 245
50 0 171 100 150 245
50 0 172 100 150 245
50 0 173 100 150 245
50 0 177 100 150 245
50 0 178 100 150 245
50 0 180 100 150 245
50 0 181 100 150 245
50 0 201 100 150 245
50 0 202 100 150 245
50 0 207 100 150 245
50 0 213 100 150 245
50 0 215 100 150 245
50 0 216 100 150 245
50 1 125 100 150 245
50 1 126 100 150 245
50 1 127 100 150 245
50 1 128 100 150 245
50 1 129 100 150 245
50 1 130 100 150 245
50 1 131 100 150 245
50 1 138 100 150 245
50 1 139 100 150 245
50 1 140 100 150 245
50 1 141 100 150 245
50 1 217 100 150 245
50 1 218 100 150 245
50 2 113 100 150 245
50 2 124 100 150 245
50 2 125 100 150 245
50 2 126 100 150 245
50 2 127 100 150 245
50 2 128 100 150 245
50 2 129 100 150 245
50 2 131 100 150 245
50 2 132 100 150 245
50 2 218 100 150 245
50 2 219 100 150 245
50 3 113 100 150 245
50 3 124 100 150 245
50 3 125 100 150 245
50 3 126 100 150 245
50 3 127 100 150 245
50 3 128 100 150 245
50 3 129 100 150 245
50 3 130 100 150 245
50 3 131 100 150 245
50 3 132 100 150 245
50 3 133 100 150 245
50 3 218 100 150 245
50 3 219 100 150 245
50 4 126 100 150 245
50 4 127 100 150 245
50 4 128 100 150 245
50 4 129 100 150 245
50 4 130 100 150 245
50 4 131 100 150 245
50 4 132 100 150 245
50 4 133 100 150 245
50 4 134 100 150 245
50 4 135 100 150 245
50 4 218 100 150 245
50 5 121 100 150 245
50 5 126 100 150 245
50 5 127 100 150 245
50 5 128 100 150 245
50 5 129 100 150 245
50 5 130 100 150 245
50 5 131 100 150 245
50 5 132 100 150 245
50 5 133 100 150 245
50 5 134 100 150 245
50 5 138 100 150 245
50 5 139 100 150 245
50 5 185 100 150 245
50 5 186 100 150 245
50 5 217 100 150 245
50 5 218 100 150 245
50 6 123 100 150 245
50 6 125 100 150 245
50 6 126 100 150 245
50 6 127 100 150 245
50 6 128 100 150 245
50 6 129 100 150 245
50 6 130 100 150 245
50 6 131 100 150 245
50 6 132 100 150 245
50 6 133 100 150 245
50 6 134 100 150 245
50 6 141 100 150 245
50 6 218 100 150 245
50 7 123 100 150 245
50 7 124 100 150 245
50 7 126 100 150 245
50 7 128 100 150 245
50 7 129 100 150 245
50 7 131 100 150 245
50 7 132 100 150 245
50 7 134 100 150 245
50 7 135 100 150 245
50 8 123 100 150 245
50 8 124 100 150 245
50 8 127 100 150 245
50 8 128 100 150 245
50 8 131 100 150 245
50 8 132 100 150 245
50 8 134 100 150 245
50 8 135 100 150 245
50 8 136 100 150 245
50 8 137 100 150 245
50 9 115 100 150 245
50 9 123 100 150 245
50 9 124 100 150 245
50 9 125 100 150 245
50 9 127 100 150 245
50 9 129 100 150 245
50 9 130 100 150 245
50 9 131 100 150 245
50 9 132 100 150 245
50 9 133 100 150 245
50 9 134 100 150 245
50 9 135 100 150 245
50 9 136 100 150 245
50 9 137 100 150 245
50 9 138 100 150 245
50 9 220 100 150 245
50 9 221 100 150 245
50 10 122 100 150 245
50 10 123 100 150 245
50 10 125 100 150 245
50 10 128 100 150 245
50 10 129 100 150 245
50 10 130 100 150 245
50 10 131 100 150 245
50 10 132 100 150 245
50 10 133 100 150 245
50 10 134 100 150 245
50 10 135 100 150 245
50 10 136 100 150 245
50 10 137 100 150 245
50 10 138 100 150 245
50 10 139 100 150 245
50 10 220 100 150 245
50 10 221 100 150 245
50 11 116 100 150 245
50 11 124 100 150 245
50 11 125 100 150 245
50 11 127 100 150 245
50 11 128 100 150 245
50 11 129 100 150 245
50 11 130 100 150 245
50 11 133 100 150 245
50 11 137 100 150 245
50 11 138 100 150 245
50 11 139 100 150 245
50 11 219 100 150 245
50 11 220 100 150 245
50 12 116 100 150 245
50 12 119 100 150 245
50 12 120 100 150 245
50 12 125 100 150 245
50 12 126 100 150 245
50 12 128 100 150 245
50 12 129 100 150 245
50 12 130 100 150 245
50 12 131 100 150 245
50 12 134 100 150 245
50 12 137 100 150 245
50 12 139 100 150 245
50 12 220 100 150 245
50 12 221 100 150 245
50 13 221 100 150 245
51 0 126 100 150 245
51 0 130 100 150 245
51 0 131 100 150 245
51 0 132 100 150 245
51 0 133 100 150 245
51 0 137 100 150 245
51 0 138 100 150 245
51 0 143 100 150 245
51 0 144 100 150 245
51 0 145 100 150 245
51 0 146 100 150 245
51 0 147 100 150 245
51 0 150 100 150 245
51 0 151 100 150 245
51 0 155 100 150 245
51 0 156 100 150 245
51 0 160 100 150 245
51 0 161 100 150 245
51 0 168 100 150 245
51 0 169 100 150 245
51 0 170 100 150 245
51 0 175 100 150 245
51 0 176 100 150 245
51 0 177 100 150 245
51 0 179 100 150 245
51 0 180 100 150 245
51 0 201 100 150 245
51 0 206 100 150 245
51 0 207 100 150 245
51 0 213 100 150 245
51 1 126 100 150 245
51 1 128 100 150 245
51 1 129 100 150 245
51 1 130 100 150 245
51 1 131 100 150 245
51 1 132 100 150 245
51 1 134 100 150 245
51 1 135 100 150 245
51 1 141 100 150 245
51 1 142 100 150 245
51 1 143 100 150 245
51 2 123 100 150 245
51 2 124 100 150 245
51 2 125 100 150 245
51 2 126 100 150 245
51 2 127 100 150 245
51 2 128 100 150 245
51 2 129 100 150 245
51 2 136 100 150 245
51 2 137 100 150 245
51 2 218 100 150 245
51 3 124 100 150 245
51 3 125 100 150 245
51 3 126 100 150 245
51 3 127 100 150 245
51 3 128 100 150 245
51 3 129 100 150 245
51 3 130 100 150 245
51 3 131 100 150 245
51 3 132 100 150 245
51 3 133 100 150 245
51 3 218 100 150 245
51 3 219 100 150 245
51 4 127 100 150 245
51 4 128 100 150 245
51 4 129 100 150 245
51 4 130 100 150 245
51 4 131 100 150 245
51 4 132 100 150 245
51 4 133 100 150 245
51 4 134 100 150 245
51 4 136 100 150 245
51 4 137 100 150 245
51 4 218 100 150 245
51 5 126 100 150 245
51 5 127 100 150 245
51 5 128 100 150 245
51 5 129 100 150 245
51 5 130 100 150 245
51 5 131 100 150 245
51 5 132 100 150 245
51 5 134 100 150 245
51 5 135 100 150 245
51 5 136 100 150 245
51 5 137 100 150 245
51 5 138 100 150 245
51 5 139 100 150 245
51 5 140 100 150 245
51 5 217 100 150 245
51 5 218 100 150 245
51 6 123 100 150 245
51 6 124 100 150 245
51 6 125 100 150 245
51 6 126 100 150 245
51 6 128 100 150 245
51 6 131 100 150 245
51 6 132 100 150 245
51 6 134 100 150 245
51 6 135 100 150 245
51 6 136 100 150 245
51 6 137 100 150 245
51 6 138 100 150 245
51 6 140 100 150 245
51 6 141 100 150 245
51 6 217 100 150 245
51 6 218 100 150 245
51 7 125 100 150 245
51 7 128 100 150 245
51 7 131 100 150 245
51 7 132 100 150 245
51 7 133 100 150 245
51 7 134 100 150 245
51 7 218 100 150 245
51 7 219 100 150 245
51 8 124 100 150 245
51 8 125 100 150 245
51 8 126 100 150 245
51 8 127 100 150 245
51 8 128 100 150 245
51 8 132 100 150 245
51 8 133 100 150 245
51 8 134 100 150 245
51 8 135 100 150 245
51 8 136 100 150 245
51 8 137 100 150 245
51 8 139 100 150 245
51 9 123 100 150 245
51 9 124 100 150 245
51 9 132 100 150 245
51 9 133 100 150 245
51 9 134 100 150 245
51 9 135 100 150 245
51 9 136 100 150 245
51 9 137 100 150 245
51 9 138 100 150 245
51 9 221 100 150 245
51 10 125 100 150 245
51 10 134 100 150 245
51 10 136 100 150 245
51 10 137 100 150 245
51 10 138 100 150 245
51 10 221 100 150 245
51 11 116 100 150 245
51 11 124 100 150 245
51 11 125 100 150 245
51 11 127 100 150 245
51 11 128 100 150 245
51 11 129 100 150 245
51 11 130 100 150 245
51 11 131 100 150 245
51 11 137 100 150 245
51 11 138 100 150 245
51 11 220 100 150 245
51 12 117 100 150 245
51 12 127 100 150 245
51 12 129 100 150 245
51 12 130 100 150 245
51 12 131 100 150 245
51 12 133 100 150 245
51 12 134 100 150 245
51 12 135 100 150 245
51 12 136 100 150 245
51 12 137 100 150 245
51 12 138 100 150 245
51 12 221 100 150 245
51 12 222 100 150 245
51 13 222 100 150 245
52 0 129 100 150 245
52 0 132 100 150 245
52 0 133 100 150 245
52 0 134 100 150 245
52 0 136 100 150 245
52 0 137 100 150 245
52 0 140 100 150 245
52 0 141 100 150 245
52 0 142 100 150 245
52 0 144 100 150 245
52 0 145 100 150 245
52 0 149 100 150 245
52 0 150 100 150 245
52 0 154 100 150 245
52 0 155 100 150 245
52 0 160 100 150 245
52 0 167 100 150 245
52 0 168 100 150 245
52 0 174 100 150 245
52 0 175 100 150 245
52 0 178 100 150 245
52 0 179 100 150 245
52 0 184 100 150 245
52 0 206 100 150 245
52 0 212 100 150 245
52 0 213 100 150 245
52 0 218 100 150 245
52 1 128 100 150 245
52 1 129 100 150 245
52 1 135 100 150 245
52 1 136 100 150 245
52 1 139 100 150 245
52 1 140 100 150 245
52 1 141 100 150 245
52 1 142 100 150 245
52 2 124 100 150 245
52 2 125 100 150 245
52 2 127 100 150 245
52 2 131 100 150 245
52 2 133 100 150 245
52 2 136 100 150 245
52 2 137 100 150 245
52 2 219 100 150 245
52 3 124 100 150 245
52 3 125 100 150 245
52 3 127 100 150 245
52 3 128 100 150 245
52 3 129 100 150 245
52 3 138 100 150 245
52 3 219 100 150 245
52 4 124 100 150 245
52 4 126 100 150 245
52 4 127 100 150 245
52 4 128 100 150 245
52 4 129 100 150 245
52 4 132 100 150 245
52 4 133 100 150 245
52 4 134 100 150 245
52 4 135 100 150 245
52 4 136 100 150 245
52 4 137 100 150 245
52 5 125 100 150 245
52 5 128 100 150 245
52 5 129 100 150 245
52 5 130 100 150 245
52 5 131 100 150 245
52 5 134 100 150 245
52 5 135 100 150 245
52 5 136 100 150 245
52 5 137 100 150 245
52 5 138 100 150 245
52 5 139 100 150 245
52 6 124 100 150 245
52 6 125 100 150 245
52 6 127 100 150 245
52 6 129 100 150 245
52 6 131 100 150 245
52 6 132 100 150 245
52 6 134 100 150 245
52 6 135 100 150 245
52 6 136 100 150 245
52 6 137 100 150 245
52 6 138 100 150 245
52 6 139 100 150 245
52 6 218 100 150 245
52 6 219 100 150 245
52 7 116 100 150 245
52 7 124 100 150 245
52 7 125 100 150 245
52 7 129 100 150 245
52 7 131 100 150 245
52 7 132 100 150 245
52 7 133 100 150 245
52 7 134 100 150 245
52 7 135 100 150 245
52 7 136 100 150 245
52 7 137 100 150 245
52 7 138 100 150 245
52 7 139 100 150 245
52 7 140 100 150 245
52 7 218 100 150 245
52 8 121 100 150 245
52 8 128 100 150 245
52 8 130 100 150 245
52 8 131 100 150 245
52 8 132 100 150 245
52 8 133 100 150 245
52 8 134 100 150 245
52 8 135 100 150 245
52 8 136 100 150 245
52 8 138 100 150 245
52 8 139 100 150 245
52 8 140 100 150 245
52 8 218 100 150 245
52 8 219 100 150 245
52 9 126 100 150 245
52 9 131 100 150 245
52 9 132 100 150 245
52 9 133 100 150 245
52 9 134 100 150 245
52 9 135 100 150 245
52 9 136 100 150 245
52 9 138 100 150 245
52 9 139 100 150 245
52 10 120 100 150 245
52 10 124 100 150 245
52 10 136 100 150 245
52 10 137 100 150 245
52 10 140 100 150 245
52 10 141 100 150 245
52 10 222 100 150 245
52 11 129 100 150 245
52 11 133 100 150 245
52 11 135 100 150 245
52 11 136 100 150 245
52 11 137 100 150 245
52 12 119 100 150 245
52 12 127 100 150 245
52 12 135 100 150 245
52 12 136 100 150 245
52 12 137 100 150 245
52 12 138 100 150 245
53 0 132 100 150 245
53 0 134 100 150 245
53 0 135 100 150 245
53 0 136 100 150 245
53 0 137 100 150 245
53 0 138 100 150 245
53 0 139 100 150 245
53 0 146 100 150 245
53 0 147 100 150 245
53 0 148 100 150 245
53 0 149 100 150 245
53 0 153 100 150 245
53 0 154 100 150 245
53 0 159 100 150 245
53 0 167 100 150 245
53 0 171 100 150 245
53 0 172 100 150 245
53 0 173 100 150 245
53 0 174 100 150 245
53 0 176 100 150 245
53 0 177 100 150 245
53 0 178 100 150 245
53 0 182 100 150 245
53 0 183 100 150 245
53 0 184 100 150 245
53 0 206 100 150 245
53 0 212 100 150 245
53 0 218 100 150 245
53 1 129 100 150 245
53 1 145 100 150 245
53 2 131 100 150 245
53 2 134 100 150 245
53 2 135 100 150 245
53 2 136 100 150 245
53 2 137 100 150 245
53 3 127 100 150 245
53 3 128 100 150 245
53 3 129 100 150 245
53 3 131 100 150 245
53 3 135 100 150 245
53 3 136 100 150 245
53 3 138 100 150 245
53 4 123 100 150 245
53 4 127 100 150 245
53 4 134 100 150 245
53 4 135 100 150 245
53 4 136 100 150 245
53 4 138 100 150 245
53 5 126 100 150 245
53 5 130 100 150 245
53 5 134 100 150 245
53 5 135 100 150 245
53 5 136 100 150 245
53 5 138 100 150 245
53 5 139 100 150 245
53 6 117 100 150 245
53 6 127 100 150 245
53 6 129 100 150 245
53 6 131 100 150 245
53 6 133 100 150 245
53 6 134 100 150 245
53 6 135 100 150 245
53 6 136 100 150 245
53 6 137 100 150 245
53 6 138 100 150 245
53 6 139 100 150 245
53 6 220 100 150 245
53 7 125 100 150 245
53 7 132 100 150 245
53 7 133 100 150 245
53 7 134 100 150 245
53 7 135 100 150 245
53 7 136 100 150 245
53 7 137 100 150 245
53 7 138 100 150 245
53 7 139 100 150 245
53 7 140 100 150 245
53 7 141 100 150 245
53 8 132 100 150 245
53 8 137 100 150 245
53 8 138 100 150 245
53 8 139 100 150 245
53 8 140 100 150 245
53 9 131 100 150 245
53 9 134 100 150 245
53 9 135 100 150 245
53 9 139 100 150 245
53 9 140 100 150 245
53 9 141 100 150 245
53 10 124 100 150 245
53 10 134 100 150 245
53 10 135 100 150 245
53 10 136 100 150 245
53 10 137 100 150 245
53 10 139 100 150 245
53 10 140 100 150 245
53 11 130 100 150 245
53 11 136 100 150 245
53 11 137 100 150 245
53 12 127 100 150 245
53 12 136 100 150 245
53 12 137 100 150 245
53 12 138 100 150 245
53 12 145 100 150 245
54 0 129 100 150 245
54 0 134 100 150 245
54 0 135 100 150 245
54 0 136 100 150 245
54 0 138 100 150 245
54 0 139 100 150 245
54 0 144 100 150 245
54 0 145 100 150 245
54 0 146 100 150 245
54 0 147 100 150 245
54 0 148 100 150 245
54 0 152 100 150 245
54 0 153 100 150 245
54 0 158 100 150 245
54 0 159 100 150 245
54 0 166 100 150 245
54 0 170 100 150 245
54 0 171 100 150 245
54 0 175 100 150 245
54 0 176 100 150 245
54 0 181 100 150 245
54 0 182 100 150 245
54 0 205 100 150 245
54 0 206 100 150 245
54 0 212 100 150 245
54 0 217 100 150 245
54 0 218 100 150 245
54 0 224 100 150 245
54 1 135 100 150 245
54 1 145 100 150 245
54 2 136 100 150 245
54 2 137 100 150 245
54 3 123 100 150 245
54 3 129 100 150 245
54 3 130 100 150 245
54 4 127 100 150 245
54 4 134 100 150 245
54 4 136 100 150 245
54 4 221 100 150 245
54 5 134 100 150 245
54 5 135 100 150 245
54 5 137 100 150 245
54 5 139 100 150 245
54 5 141 100 150 245
54 5 142 100 150 245
54 6 123 100 150 245
54 6 130 100 150 245
54 6 132 100 150 245
54 6 134 100 150 245
54 6 135 100 150 245
54 6 136 100 150 245
54 6 137 100 150 245
54 6 140 100 150 245
54 6 141 100 150 245
54 7 124 100 150 245
54 7 133 100 150 245
54 7 137 100 150 245
54 7 138 100 150 245
54 7 139 100 150 245
54 7 140 100 150 245
54 8 138 100 150 245
54 8 139 100 150 245
54 9 139 100 150 245
54 10 130 100 150 245
54 10 135 100 150 245
54 10 136 100 150 245
54 10 138 100 150 245
54 10 139 100 150 245
54 11 124 100 150 245
54 11 136 100 150 245
54 11 137 100 150 245
54 11 147 100 150 245
54 12 119 100 150 245
54 12 120 100 150 245
54 12 134 100 150 245
54 12 136 100 150 245
54 12 137 100 150 245
54 12 138 100 150 245
54 12 146 100 150 245
54 12 147 100 150 245
54 12 148 100 150 245
55 0 129 100 150 245
55 0 135 100 150 245
55 0 136 100 150 245
55 0 138 100 150 245
55 0 143 100 150 245
55 0 144 100 150 245
55 0 148 100 150 245
55 0 149 100 150 245
55 0 151 100 150 245
55 0 152 100 150 245
55 0 157 100 150 245
55 0 158 100 150 245
55 0 165 100 150 245
55 0 169 100 150 245
55 0 170 100 150 245
55 0 172 100 150 245
55 0 173 100 150 245
55 0 174 100 150 245
55 0 180 100 150 245
55 0 181 100 150 245
55 0 186 100 150 245
55 0 187 100 150 245
55 0 211 100 150 245
55 0 217 100 150 245
55 0 223 100 150 245
55 1 136 100 150 245
55 1 225 100 150 245
55 2 133 100 150 245
55 2 135 100 150 245
55 3 123 100 150 245
55 3 124 100 150 245
55 3 129 100 150 245
55 4 124 100 150 245
55 4 127 100 150 245
55 4 138 100 150 245
55 4 139 100 150 245
55 4 144 100 150 245
55 5 134 100 150 245
55 5 135 100 150 245
55 5 136 100 150 245
55 5 139 100 150 245
55 5 141 100 150 245
55 5 142 100 150 245
55 5 146 100 150 245
55 6 136 100 150 245
55 6 137 100 150 245
55 6 138 100 150 245
55 7 124 100 150 245
55 7 134 100 150 245
55 7 137 100 150 245
55 7 138 100 150 245
55 8 122 100 150 245
55 8 130 100 150 245
55 8 137 100 150 245
55 8 138 100 150 245
55 9 135 100 150 245
55 9 136 100 150 245
55 9 138 100 150 245
55 9 139 100 150 245
55 10 123 100 150 245
55 10 135 100 150 245
55 10 137 100 150 245
55 10 140 100 150 245
55 11 130 100 150 245
55 11 136 100 150 245
55 11 137 100 150 245
55 11 141 100 150 245
55 11 147 100 150 245
55 11 148 100 150 245
55 11 149 100 150 245
55 11 150 100 150 245
55 12 136 100 150 245
55 12 139 100 150 245
55 12 145 100 150 245
55 12 146 100 150 245
55 12 147 100 150 245
55 12 148 100 150 245
55 12 149 100 150 245
55 13 147 100 150 245
56 0 136 100 150 245
56 0 137 100 150 245
56 0 138 100 150 245
56 0 143 100 150 245
56 0 148 100 150 245
56 0 149 100 150 245
56 0 150 100 150 245
56 0 151 100 150 245
56 0 156 100 150 245
56 0 157 100 150 245
56 0 164 100 150 245
56 0 165 100 150 245
56 0 168 100 150 245
56 0 169 100 150 245
56 0 171 100 150 245
56 0 172 100 150 245
56 0 178 100 150 245
56 0 179 100 150 245
56 0 180 100 150 245
56 0 184 100 150 245
56 0 185 100 150 245
56 0 186 100 150 245
56 0 211 100 150 245
56 0 216 100 150 245
56 0 217 100 150 245
56 0 223 100 150 245
56 1 148 100 150 245
56 1 149 100 150 245
56 2 128 100 150 245
56 2 136 100 150 245
56 2 137 100 150 245
56 3 130 100 150 245
56 3 137 100 150 245
56 3 138 100 150 245
56 3 141 100 150 245
56 4 137 100 150 245
56 4 138 100 150 245
56 4 142 100 150 245
56 4 144 100 150 245
56 4 145 100 150 245
56 4 146 100 150 245
56 5 135 100 150 245
56 5 136 100 150 245
56 5 137 100 150 245
56 5 138 100 150 245
56 5 139 100 150 245
56 5 145 100 150 245
56 6 134 100 150 245
56 6 138 100 150 245
56 6 139 100 150 245
56 6 140 100 150 245
56 7 124 100 150 245
56 7 136 100 150 245
56 7 137 100 150 245
56 7 138 100 150 245
56 7 139 100 150 245
56 9 122 100 150 245
56 9 137 100 150 245
56 9 139 100 150 245
56 10 136 100 150 245
56 10 138 100 150 245
56 10 140 100 150 245
56 10 141 100 150 245
56 10 146 100 150 245
56 10 147 100 150 245
56 11 121 100 150 245
56 11 134 100 150 245
56 11 137 100 150 245
56 11 138 100 150 245
56 11 139 100 150 245
56 11 140 100 150 245
56 11 141 100 150 245
56 11 142 100 150 245
56 11 144 100 150 245
56 11 145 100 150 245
56 11 146 100 150 245
56 11 147 100 150 245
56 11 148 100 150 245
56 11 149 100 150 245
56 11 150 100 150 245
56 11 151 100 150 245
56 12 134 100 150 245
56 12 140 100 150 245
56 12 144 100 150 245
56 12 145 100 150 245
56 12 146 100 150 245
56 12 148 100 150 245
56 12 149 100 150 245
56 13 144 100 150 245
56 13 145 100 150 245
56 13 146 100 150 245
56 13 147 100 150 245
56 13 148 100 150 245
57 0 137 100 150 245
57 0 138 100 150 245
57 0 139 100 150 245
57 0 143 100 150 245
57 0 147 100 150 245
