ply
format ascii 1.0
element vertex 201
property float x
property float y
property float z
property uchar red
property uchar green
property uchar blue
end_header
2 1 14 0 175 0
3 0 13 0 175 0
3 0 14 255 0 255
3 0 15 255 0 255
3 0 16 255 0 255
3 0 17 255 0 255
3 0 18 255 0 255
3 1 13 0 175 0
3 1 14 0 175 0
3 1 15 0 175 0
4 0 12 0 175 0
4 0 13 0 175 0
4 0 14 0 175 0
4 0 15 150 240 80
4 0 16 255 0 255
4 0 17 255 0 255
4 0 18 255 0 255
4 0 19 255 0 255
4 1 12 0 175 0
4 1 13 0 175 0
4 1 14 0 175 0
4 1 15 0 175 0
5 0 12 255 120 50
5 0 13 0 175 0
5 0 14 0 175 0
5 0 15 0 175 0
5 0 16 0 175 0
5 0 17 255 0 255
5 0 18 255 0 255
5 0 19 255 0 255
5 0 20 255 0 255
5 1 12 255 120 50
5 1 13 0 175 0
5 1 14 0 175 0
5 1 15 0 175 0
5 1 16 0 175 0
5 1 17 0 175 0
5 2 16 0 175 0
6 0 13 255 120 50
6 0 14 255 120 50
6 0 15 0 175 0
6 0 16 0 175 0
6 0 17 0 175 0
6 0 18 255 0 255
6 0 19 255 0 255
6 0 20 255 0 255
6 1 13 255 120 50
6 1 14 0 175 0
6 1 15 0 175 0
6 1 16 0 175 0
6 1 17 0 175 0
6 1 18 0 175 0
6 1 19 0 175 0
6 2 15 0 175 0
6 2 16 0 175 0
6 2 17 0 175 0
6 2 18 0 175 0
7 0 14 255 120 50
7 0 15 255 120 50
7 0 16 0 175 0
7 0 17 0 175 0
7 0 18 0 175 0
7 0 19 150 240 80
7 0 20 255 0 255
7 0 21 255 0 255
7 1 14 255 120 50
7 1 15 255 120 50
7 1 16 0 175 0
7 1 17 0 175 0
7 1 18 0 175 0
7 1 19 0 175 0
7 2 15 255 120 50
7 2 16 0 175 0
7 2 17 0 175 0
7 2 18 0 175 0
7 2 19 0 175 0
8 0 16 255 120 50
8 0 17 0 175 0
8 0 18 0 175 0
8 0 19 0 175 0
8 0 20 0 175 0
8 0 21 255 0 255
8 0 22 255 0 255
8 1 16 255 120 50
8 1 17 0 175 0
8 1 18 0 175 0
8 1 19 0 175 0
8 1 20 0 175 0
8 2 17 0 175 0
8 2 18 0 175 0
8 2 19 0 175 0
9 0 17 255 120 50
9 0 18 0 175 0
9 0 19 0 175 0
9 0 20 0 175 0
9 0 21 150 240 80
9 0 22 255 0 255
9 0 23 255 0 255
9 1 17 255 120 50
9 1 18 255 120 50
9 1 19 0 175 0
9 1 20 0 175 0
9 1 21 0 175 0
9 1 22 0 175 0
9 2 17 255 120 50
9 2 18 0 175 0
9 2 19 0 175 0
9 2 20 0 175 0
10 0 18 255 120 50
10 0 19 0 175 0
10 0 20 0 175 0
10 0 21 0 175 0
10 0 22 0 175 0
10 0 23 150 240 80
10 0 24 255 0 255
10 1 18 255 120 50
10 1 19 0 175 0
10 1 20 0 175 0
10 1 21 0 175 0
10 1 22 0 175 0
10 1 23 0 175 0
10 2 19 0 175 0
10 2 21 0 175 0
10 2 22 0 175 0
11 0 20 0 175 0
11 0 21 0 175 0
11 0 22 0 175 0
11 0 23 0 175 0
11 0 24 150 240 80
11 0 25 255 0 255
11 1 20 0 175 0
11 1 21 0 175 0
11 1 22 0 175 0
11 1 23 0 175 0
11 1 24 255 240 150
11 2 21 0 175 0
11 2 22 0 175 0
11 2 23 0 175 0
11 2 24 255 240 150
12 0 21 0 175 0
12 0 22 0 175 0
12 0 23 0 175 0
12 0 24 0 175 0
12 0 25 150 240 80
12 1 21 0 175 0
12 1 22 0 175 0
12 1 23 0 175 0
12 1 24 0 175 0
12 1 25 0 175 0
12 2 23 0 175 0
12 2 24 0 175 0
12 2 25 0 175 0
13 0 22 0 175 0
13 0 23 0 175 0
13 0 24 0 175 0
13 0 25 0 175 0
13 0 26 0 175 0
13 1 22 0 175 0
13 1 23 0 175 0
13 1 24 0 175 0
13 1 25 0 175 0
13 1 26 0 175 0
13 2 25 0 175 0
13 2 26 0 175 0
14 0 24 0 175 0
14 0 25 0 175 0
14 0 26 0 175 0
14 0 27 0 175 0
14 1 24 0 175 0
14 1 25 0 175 0
14 1 26 0 175 0
14 1 27 0 175 0
14 2 25 0 175 0
14 2 26 0 175 0
14 2 27 0 175 0
15 0 25 0 175 0
15 0 26 0 175 0
15 0 27 0 175 0
15 0 28 0 175 0
15 1 25 0 175 0
15 1 26 0 175 0
15 1 27 0 175 0
15 1 28 0 175 0
15 2 27 0 175 0
15 2 28 0 175 0
16 0 27 0 175 0
16 0 28 0 175 0
16 0 29 0 175 0
16 1 27 0 175 0
16 1 28 0 175 0
16 1 29 0 175 0
16 2 28 0 175 0
16 2 29 0 175 0
17 0 28 0 175 0
17 0 29 0 175 0
17 0 30 0 175 0
17 1 28 0 175 0
17 1 29 0 175 0
17 1 30 0 175 0
17 2 30 0 175 0
18 0 31 0 175 0
