ply
format ascii 1.0
element vertex 2093
property float x
property float y
property float z
property uchar red
property uchar green
property uchar blue
end_header
0 0 11 100 150 245
0 0 12 100 150 245
0 0 45 100 150 245
0 0 46 100 150 245
0 1 7 100 150 245
0 1 8 100 150 245
0 1 9 100 150 245
0 1 10 100 150 245
0 1 11 100 150 245
0 1 12 100 150 245
0 1 46 100 150 245
0 1 48 100 150 245
0 1 49 100 150 245
0 1 50 100 150 245
0 1 51 100 150 245
0 1 52 100 150 245
0 1 55 100 150 245
0 2 7 100 150 245
0 2 8 100 150 245
0 2 9 100 150 245
0 2 10 100 150 245
0 2 11 100 150 245
0 2 12 100 150 245
0 2 48 100 150 245
0 2 50 100 150 245
0 2 51 100 150 245
0 3 50 100 150 245
0 3 51 100 150 245
0 3 52 100 150 245
1 0 0 100 150 245
1 0 1 100 150 245
1 0 2 100 150 245
1 0 3 100 150 245
1 0 4 100 150 245
1 0 5 100 150 245
1 0 6 100 150 245
1 0 7 100 150 245
1 0 8 100 150 245
1 0 9 100 150 245
1 0 10 100 150 245
1 0 11 100 150 245
1 0 12 100 150 245
1 0 13 100 150 245
1 0 45 100 150 245
1 0 47 100 150 245
1 0 48 100 150 245
1 0 49 100 150 245
1 0 50 100 150 245
1 0 51 100 150 245
1 0 52 100 150 245
1 0 53 100 150 245
1 0 54 100 150 245
1 0 55 100 150 245
1 0 56 100 150 245
1 0 57 100 150 245
1 0 58 100 150 245
1 1 0 100 150 245
1 1 1 100 150 245
1 1 2 100 150 245
1 1 3 100 150 245
1 1 4 100 150 245
1 1 5 100 150 245
1 1 6 100 150 245
1 1 7 100 150 245
1 1 8 100 150 245
1 1 9 100 150 245
1 1 10 100 150 245
1 1 11 100 150 245
1 1 12 100 150 245
1 1 13 100 150 245
1 1 47 100 150 245
1 1 48 100 150 245
1 1 49 100 150 245
1 1 50 100 150 245
1 1 51 100 150 245
1 1 52 100 150 245
1 1 53 100 150 245
1 1 54 100 150 245
1 1 55 100 150 245
1 1 56 100 150 245
1 1 57 100 150 245
1 1 58 100 150 245
1 2 0 100 150 245
1 2 1 100 150 245
1 2 2 100 150 245
1 2 3 100 150 245
1 2 4 100 150 245
1 2 5 100 150 245
1 2 6 100 150 245
1 2 7 100 150 245
1 2 8 100 150 245
1 2 9 100 150 245
1 2 10 100 150 245
1 2 11 100 150 245
1 2 12 100 150 245
1 2 13 100 150 245
1 2 47 100 150 245
1 2 48 100 150 245
1 2 49 100 150 245
1 2 50 100 150 245
1 2 52 100 150 245
1 2 53 100 150 245
1 2 54 100 150 245
1 2 55 100 150 245
1 2 56 100 150 245
1 2 59 100 150 245
1 3 0 100 150 245
1 3 1 100 150 245
1 3 2 100 150 245
1 3 3 100 150 245
1 3 4 100 150 245
1 3 5 100 150 245
1 3 6 100 150 245
1 3 7 100 150 245
1 3 8 100 150 245
1 3 9 100 150 245
1 3 10 100 150 245
1 3 11 100 150 245
1 3 12 100 150 245
1 3 49 100 150 245
1 3 50 100 150 245
1 3 52 100 150 245
1 3 53 100 150 245
1 3 54 100 150 245
1 3 55 100 150 245
1 4 21 100 150 245
1 5 20 100 150 245
2 0 0 100 150 245
2 0 1 100 150 245
2 0 2 100 150 245
2 0 3 100 150 245
2 0 4 100 150 245
2 0 5 100 150 245
2 0 6 100 150 245
2 0 7 100 150 245
2 0 8 100 150 245
2 0 9 100 150 245
2 0 10 100 150 245
2 0 11 100 150 245
2 0 12 100 150 245
2 0 13 100 150 245
2 0 14 100 150 245
2 0 43 100 150 245
2 0 44 100 150 245
2 0 45 100 150 245
2 0 48 100 150 245
2 0 49 100 150 245
2 0 50 100 150 245
2 0 51 100 150 245
2 0 52 100 150 245
2 0 53 100 150 245
2 0 54 100 150 245
2 0 55 100 150 245
2 0 56 100 150 245
2 0 57 100 150 245
2 0 58 100 150 245
2 0 59 100 150 245
2 1 0 100 150 245
2 1 1 100 150 245
2 1 2 100 150 245
2 1 3 100 150 245
2 1 4 100 150 245
2 1 5 100 150 245
2 1 6 100 150 245
2 1 7 100 150 245
2 1 8 100 150 245
2 1 9 100 150 245
2 1 10 100 150 245
2 1 11 100 150 245
2 1 12 100 150 245
2 1 13 100 150 245
2 1 14 100 150 245
2 1 48 100 150 245
2 1 52 100 150 245
2 1 53 100 150 245
2 1 54 100 150 245
2 1 55 100 150 245
2 1 56 100 150 245
2 1 57 100 150 245
2 1 58 100 150 245
2 1 59 100 150 245
2 2 0 100 150 245
2 2 1 100 150 245
2 2 2 100 150 245
2 2 3 100 150 245
2 2 4 100 150 245
2 2 5 100 150 245
2 2 6 100 150 245
2 2 7 100 150 245
2 2 8 100 150 245
2 2 9 100 150 245
2 2 10 100 150 245
2 2 11 100 150 245
2 2 12 100 150 245
2 2 13 100 150 245
2 2 14 100 150 245
2 2 48 100 150 245
2 2 49 100 150 245
2 2 51 100 150 245
2 2 52 100 150 245
2 2 54 100 150 245
2 2 55 100 150 245
2 2 58 100 150 245
2 2 59 100 150 245
2 3 0 100 150 245
2 3 1 100 150 245
2 3 2 100 150 245
2 3 3 100 150 245
2 3 4 100 150 245
2 3 5 100 150 245
2 3 6 100 150 245
2 3 7 100 150 245
2 3 8 100 150 245
2 3 9 100 150 245
2 3 10 100 150 245
2 3 11 100 150 245
2 3 12 100 150 245
2 3 13 100 150 245
2 3 14 100 150 245
2 3 15 100 150 245
2 3 51 100 150 245
2 3 53 100 150 245
2 4 0 100 150 245
2 4 5 100 150 245
2 4 6 100 150 245
2 4 7 100 150 245
2 4 8 100 150 245
2 4 9 100 150 245
3 0 0 100 150 245
3 0 1 100 150 245
3 0 2 100 150 245
3 0 3 100 150 245
3 0 4 100 150 245
3 0 5 100 150 245
3 0 6 100 150 245
3 0 7 100 150 245
3 0 8 100 150 245
3 0 9 100 150 245
3 0 10 100 150 245
3 0 11 100 150 245
3 0 12 100 150 245
3 0 13 100 150 245
3 0 14 100 150 245
3 0 15 100 150 245
3 0 44 100 150 245
3 0 45 100 150 245
3 0 46 100 150 245
3 0 47 100 150 245
3 0 48 100 150 245
3 0 49 100 150 245
3 0 50 100 150 245
3 0 51 100 150 245
3 0 52 100 150 245
3 0 53 100 150 245
3 0 54 100 150 245
3 0 55 100 150 245
3 0 56 100 150 245
3 0 57 100 150 245
3 0 58 100 150 245
3 0 59 100 150 245
3 1 0 100 150 245
3 1 1 100 150 245
3 1 2 100 150 245
3 1 3 100 150 245
3 1 4 100 150 245
3 1 5 100 150 245
3 1 6 100 150 245
3 1 7 100 150 245
3 1 8 100 150 245
3 1 9 100 150 245
3 1 10 100 150 245
3 1 11 100 150 245
3 1 12 100 150 245
3 1 13 100 150 245
3 1 14 100 150 245
3 1 15 100 150 245
3 1 52 100 150 245
3 1 53 100 150 245
3 1 54 100 150 245
3 1 55 100 150 245
3 1 56 100 150 245
3 1 57 100 150 245
3 1 58 100 150 245
3 1 59 100 150 245
3 1 60 100 150 245
3 2 0 100 150 245
3 2 1 100 150 245
3 2 2 100 150 245
3 2 3 100 150 245
3 2 4 100 150 245
3 2 5 100 150 245
3 2 6 100 150 245
3 2 7 100 150 245
3 2 8 100 150 245
3 2 9 100 150 245
3 2 10 100 150 245
3 2 11 100 150 245
3 2 12 100 150 245
3 2 13 100 150 245
3 2 14 100 150 245
3 2 15 100 150 245
3 2 51 100 150 245
3 2 53 100 150 245
3 2 54 100 150 245
3 3 0 100 150 245
3 3 1 100 150 245
3 3 2 100 150 245
3 3 3 100 150 245
3 3 4 100 150 245
3 3 5 100 150 245
3 3 6 100 150 245
3 3 7 100 150 245
3 3 8 100 150 245
3 3 9 100 150 245
3 3 10 100 150 245
3 3 11 100 150 245
3 3 12 100 150 245
3 3 13 100 150 245
3 3 14 100 150 245
3 3 15 100 150 245
3 3 51 100 150 245
3 3 54 100 150 245
3 4 0 100 150 245
3 4 1 100 150 245
3 4 2 100 150 245
3 4 3 100 150 245
3 4 8 100 150 245
3 4 9 100 150 245
4 0 0 100 150 245
4 0 1 100 150 245
4 0 2 100 150 245
4 0 3 100 150 245
4 0 4 100 150 245
4 0 5 100 150 245
4 0 6 100 150 245
4 0 7 100 150 245
4 0 8 100 150 245
4 0 9 100 150 245
4 0 10 100 150 245
4 0 11 100 150 245
4 0 12 100 150 245
4 0 13 100 150 245
4 0 14 100 150 245
4 0 15 100 150 245
4 0 16 100 150 245
4 0 17 100 150 245
4 0 45 100 150 245
4 0 46 100 150 245
4 0 47 100 150 245
4 0 48 100 150 245
4 0 49 100 150 245
4 0 50 100 150 245
4 0 51 100 150 245
4 0 52 100 150 245
4 0 54 100 150 245
4 0 55 100 150 245
4 0 56 100 150 245
4 0 57 100 150 245
4 0 58 100 150 245
4 1 0 100 150 245
4 1 1 100 150 245
4 1 2 100 150 245
4 1 3 100 150 245
4 1 4 100 150 245
4 1 5 100 150 245
4 1 6 100 150 245
4 1 7 100 150 245
4 1 8 100 150 245
4 1 9 100 150 245
4 1 10 100 150 245
4 1 11 100 150 245
4 1 12 100 150 245
4 1 13 100 150 245
4 1 14 100 150 245
4 1 15 100 150 245
4 1 16 100 150 245
4 1 17 100 150 245
4 1 51 100 150 245
4 1 52 100 150 245
4 1 53 100 150 245
4 1 54 100 150 245
4 1 55 100 150 245
4 1 56 100 150 245
4 1 57 100 150 245
4 1 58 100 150 245
4 1 59 100 150 245
4 1 60 100 150 245
4 2 0 100 150 245
4 2 1 100 150 245
4 2 2 100 150 245
4 2 3 100 150 245
4 2 4 100 150 245
4 2 5 100 150 245
4 2 6 100 150 245
4 2 7 100 150 245
4 2 8 100 150 245
4 2 9 100 150 245
4 2 10 100 150 245
4 2 11 100 150 245
4 2 12 100 150 245
4 2 13 100 150 245
4 2 14 100 150 245
4 2 15 100 150 245
4 2 16 100 150 245
4 2 17 100 150 245
4 2 51 100 150 245
4 2 53 100 150 245
4 2 54 100 150 245
4 2 59 100 150 245
4 3 0 100 150 245
4 3 1 100 150 245
4 3 2 100 150 245
4 3 3 100 150 245
4 3 4 100 150 245
4 3 5 100 150 245
4 3 6 100 150 245
4 3 7 100 150 245
4 3 8 100 150 245
4 3 9 100 150 245
4 3 10 100 150 245
4 3 11 100 150 245
4 3 12 100 150 245
4 3 13 100 150 245
4 3 14 100 150 245
4 3 15 100 150 245
4 4 0 100 150 245
4 4 1 100 150 245
4 4 2 100 150 245
4 4 3 100 150 245
5 0 0 100 150 245
5 0 1 100 150 245
5 0 2 100 150 245
5 0 3 100 150 245
5 0 4 100 150 245
5 0 5 100 150 245
5 0 6 100 150 245
5 0 7 100 150 245
5 0 8 100 150 245
5 0 9 100 150 245
5 0 10 100 150 245
5 0 11 100 150 245
5 0 12 100 150 245
5 0 13 100 150 245
5 0 14 100 150 245
5 0 15 100 150 245
5 0 16 100 150 245
5 0 17 100 150 245
5 0 18 100 150 245
5 0 46 100 150 245
5 0 47 100 150 245
5 0 48 100 150 245
5 0 49 100 150 245
5 0 52 100 150 245
5 0 56 100 150 245
5 0 57 100 150 245
5 0 58 100 150 245
5 1 0 100 150 245
5 1 1 100 150 245
5 1 2 100 150 245
5 1 3 100 150 245
5 1 4 100 150 245
5 1 5 100 150 245
5 1 6 100 150 245
5 1 7 100 150 245
5 1 8 100 150 245
5 1 9 100 150 245
5 1 10 100 150 245
5 1 11 100 150 245
5 1 12 100 150 245
5 1 13 100 150 245
5 1 14 100 150 245
5 1 15 100 150 245
5 1 16 100 150 245
5 1 17 100 150 245
5 1 18 100 150 245
5 1 52 100 150 245
5 1 53 100 150 245
5 1 56 100 150 245
5 1 57 100 150 245
5 1 58 100 150 245
5 2 0 100 150 245
5 2 1 100 150 245
5 2 2 100 150 245
5 2 3 100 150 245
5 2 4 100 150 245
5 2 5 100 150 245
5 2 6 100 150 245
5 2 7 100 150 245
5 2 8 100 150 245
5 2 9 100 150 245
5 2 10 100 150 245
5 2 11 100 150 245
5 2 12 100 150 245
5 2 13 100 150 245
5 2 14 100 150 245
5 2 15 100 150 245
5 2 16 100 150 245
5 2 17 100 150 245
5 2 18 100 150 245
5 2 52 100 150 245
5 2 53 100 150 245
5 3 0 100 150 245
5 3 1 100 150 245
5 3 2 100 150 245
5 3 3 100 150 245
5 3 4 100 150 245
5 3 5 100 150 245
5 3 6 100 150 245
5 3 7 100 150 245
5 3 8 100 150 245
5 3 9 100 150 245
5 3 10 100 150 245
5 3 11 100 150 245
5 3 12 100 150 245
5 3 13 100 150 245
5 3 14 100 150 245
5 3 15 100 150 245
5 3 16 100 150 245
5 4 0 100 150 245
5 4 1 100 150 245
5 4 2 100 150 245
5 4 3 100 150 245
5 4 4 100 150 245
5 4 5 100 150 245
6 0 0 100 150 245
6 0 1 100 150 245
6 0 2 100 150 245
6 0 3 100 150 245
6 0 4 100 150 245
6 0 5 100 150 245
6 0 6 100 150 245
6 0 7 100 150 245
6 0 8 100 150 245
6 0 9 100 150 245
6 0 10 100 150 245
6 0 11 100 150 245
6 0 12 100 150 245
6 0 13 100 150 245
6 0 14 100 150 245
6 0 15 100 150 245
6 0 16 100 150 245
6 0 17 100 150 245
6 0 18 100 150 245
6 0 19 100 150 245
6 1 0 100 150 245
6 1 1 100 150 245
6 1 2 100 150 245
6 1 3 100 150 245
6 1 4 100 150 245
6 1 5 100 150 245
6 1 6 100 150 245
6 1 7 100 150 245
6 1 8 100 150 245
6 1 9 100 150 245
6 1 10 100 150 245
6 1 11 100 150 245
6 1 12 100 150 245
6 1 13 100 150 245
6 1 14 100 150 245
6 1 15 100 150 245
6 1 16 100 150 245
6 1 17 100 150 245
6 1 18 100 150 245
6 1 19 100 150 245
6 2 0 100 150 245
6 2 1 100 150 245
6 2 2 100 150 245
6 2 3 100 150 245
6 2 4 100 150 245
6 2 5 100 150 245
6 2 6 100 150 245
6 2 7 100 150 245
6 2 8 100 150 245
6 2 9 100 150 245
6 2 10 100 150 245
6 2 11 100 150 245
6 2 12 100 150 245
6 2 13 100 150 245
6 2 14 100 150 245
6 2 15 100 150 245
6 2 16 100 150 245
6 2 17 100 150 245
6 2 18 100 150 245
6 2 19 100 150 245
6 3 0 100 150 245
6 3 1 100 150 245
6 3 2 100 150 245
6 3 3 100 150 245
6 3 4 100 150 245
6 3 5 100 150 245
6 3 6 100 150 245
6 3 7 100 150 245
6 3 8 100 150 245
6 3 9 100 150 245
6 3 10 100 150 245
6 3 11 100 150 245
6 3 12 100 150 245
6 3 13 100 150 245
6 3 14 100 150 245
6 3 15 100 150 245
6 3 16 100 150 245
6 3 17 100 150 245
6 4 0 100 150 245
6 4 1 100 150 245
6 4 2 100 150 245
6 4 3 100 150 245
6 4 4 100 150 245
6 4 5 100 150 245
7 0 0 100 150 245
7 0 1 100 150 245
7 0 2 100 150 245
7 0 3 100 150 245
7 0 4 100 150 245
7 0 5 100 150 245
7 0 6 100 150 245
7 0 7 100 150 245
7 0 8 100 150 245
7 0 9 100 150 245
7 0 10 100 150 245
7 0 11 100 150 245
7 0 12 100 150 245
7 0 13 100 150 245
7 0 14 100 150 245
7 0 15 100 150 245
7 0 16 100 150 245
7 0 17 100 150 245
7 0 18 100 150 245
7 0 19 100 150 245
7 0 20 100 150 245
7 0 61 100 150 245
7 0 62 100 150 245
7 1 0 100 150 245
7 1 1 100 150 245
7 1 2 100 150 245
7 1 3 100 150 245
7 1 4 100 150 245
7 1 5 100 150 245
7 1 6 100 150 245
7 1 7 100 150 245
7 1 8 100 150 245
7 1 9 100 150 245
7 1 10 100 150 245
7 1 11 100 150 245
7 1 12 100 150 245
7 1 13 100 150 245
7 1 14 100 150 245
7 1 15 100 150 245
7 1 16 100 150 245
7 1 17 100 150 245
7 1 18 100 150 245
7 1 19 100 150 245
7 1 20 100 150 245
7 2 0 100 150 245
7 2 1 100 150 245
7 2 2 100 150 245
7 2 3 100 150 245
7 2 4 100 150 245
7 2 5 100 150 245
7 2 6 100 150 245
7 2 7 100 150 245
7 2 8 100 150 245
7 2 9 100 150 245
7 2 10 100 150 245
7 2 11 100 150 245
7 2 12 100 150 245
7 2 13 100 150 245
7 2 14 100 150 245
7 2 15 100 150 245
7 2 16 100 150 245
7 2 17 100 150 245
7 2 18 100 150 245
7 2 19 100 150 245
7 2 20 100 150 245
7 3 0 100 150 245
7 3 1 100 150 245
7 3 2 100 150 245
7 3 3 100 150 245
7 3 4 100 150 245
7 3 5 100 150 245
7 3 6 100 150 245
7 3 7 100 150 245
7 3 8 100 150 245
7 3 9 100 150 245
7 3 10 100 150 245
7 3 11 100 150 245
7 3 12 100 150 245
7 3 13 100 150 245
7 3 14 100 150 245
7 3 15 100 150 245
7 3 16 100 150 245
7 4 0 100 150 245
7 4 1 100 150 245
7 4 2 100 150 245
7 4 3 100 150 245
7 4 4 100 150 245
7 4 5 100 150 245
7 4 6 100 150 245
7 4 7 100 150 245
8 0 0 100 150 245
8 0 1 100 150 245
8 0 2 100 150 245
8 0 3 100 150 245
8 0 4 100 150 245
8 0 5 100 150 245
8 0 6 100 150 245
8 0 7 100 150 245
8 0 8 100 150 245
8 0 9 100 150 245
8 0 10 100 150 245
8 0 11 100 150 245
8 0 12 100 150 245
8 0 13 100 150 245
8 0 14 100 150 245
8 0 15 100 150 245
8 0 16 100 150 245
8 0 17 100 150 245
8 0 18 100 150 245
8 0 19 100 150 245
8 0 20 100 150 245
8 0 21 100 150 245
8 0 22 100 150 245
8 1 0 100 150 245
8 1 1 100 150 245
8 1 2 100 150 245
8 1 3 100 150 245
8 1 4 100 150 245
8 1 5 100 150 245
8 1 6 100 150 245
8 1 7 100 150 245
8 1 8 100 150 245
8 1 9 100 150 245
8 1 10 100 150 245
8 1 11 100 150 245
8 1 12 100 150 245
8 1 13 100 150 245
8 1 14 100 150 245
8 1 15 100 150 245
8 1 16 100 150 245
8 1 17 100 150 245
8 1 18 100 150 245
8 1 19 100 150 245
8 1 20 100 150 245
8 1 21 100 150 245
8 2 0 100 150 245
8 2 1 100 150 245
8 2 2 100 150 245
8 2 3 100 150 245
8 2 4 100 150 245
8 2 5 100 150 245
8 2 6 100 150 245
8 2 7 100 150 245
8 2 8 100 150 245
8 2 9 100 150 245
8 2 10 100 150 245
8 2 11 100 150 245
8 2 12 100 150 245
8 2 13 100 150 245
8 2 14 100 150 245
8 2 15 100 150 245
8 2 16 100 150 245
8 2 17 100 150 245
8 2 18 100 150 245
8 2 19 100 150 245
8 2 20 100 150 245
8 2 21 100 150 245
8 3 0 100 150 245
8 3 1 100 150 245
8 3 2 100 150 245
8 3 3 100 150 245
8 3 4 100 150 245
8 3 5 100 150 245
8 3 6 100 150 245
8 3 7 100 150 245
8 3 8 100 150 245
8 3 9 100 150 245
8 3 10 100 150 245
8 3 11 100 150 245
8 3 12 100 150 245
8 3 13 100 150 245
8 3 14 100 150 245
8 3 15 100 150 245
8 3 16 100 150 245
8 4 0 100 150 245
8 4 1 100 150 245
8 4 2 100 150 245
8 4 3 100 150 245
8 4 4 100 150 245
8 4 5 100 150 245
8 4 6 100 150 245
8 4 7 100 150 245
9 0 0 100 150 245
9 0 1 100 150 245
9 0 2 100 150 245
9 0 3 100 150 245
9 0 4 100 150 245
9 0 5 100 150 245
9 0 6 100 150 245
9 0 7 100 150 245
9 0 8 100 150 245
9 0 9 100 150 245
9 0 10 100 150 245
9 0 11 100 150 245
9 0 12 100 150 245
9 0 13 100 150 245
9 0 14 100 150 245
9 0 15 100 150 245
9 0 16 100 150 245
9 0 17 100 150 245
9 0 18 100 150 245
9 0 19 100 150 245
9 0 20 100 150 245
9 0 21 100 150 245
9 0 22 100 150 245
9 0 23 100 150 245
9 1 0 100 150 245
9 1 1 100 150 245
9 1 2 100 150 245
9 1 3 100 150 245
9 1 4 100 150 245
9 1 5 100 150 245
9 1 6 100 150 245
9 1 7 100 150 245
9 1 8 100 150 245
9 1 9 100 150 245
9 1 10 100 150 245
9 1 11 100 150 245
9 1 12 100 150 245
9 1 13 100 150 245
9 1 14 100 150 245
9 1 15 100 150 245
9 1 16 100 150 245
9 1 17 100 150 245
9 1 18 100 150 245
9 1 19 100 150 245
9 1 20 100 150 245
9 1 21 100 150 245
9 1 22 100 150 245
9 1 23 100 150 245
9 2 0 100 150 245
9 2 1 100 150 245
9 2 2 100 150 245
9 2 3 100 150 245
9 2 4 100 150 245
9 2 5 100 150 245
9 2 6 100 150 245
9 2 7 100 150 245
9 2 8 100 150 245
9 2 9 100 150 245
9 2 10 100 150 245
9 2 11 100 150 245
9 2 12 100 150 245
9 2 13 100 150 245
9 2 14 100 150 245
9 2 15 100 150 245
9 2 16 100 150 245
9 2 17 100 150 245
9 2 18 100 150 245
9 2 19 100 150 245
9 2 20 100 150 245
9 2 21 100 150 245
9 2 22 100 150 245
9 3 0 100 150 245
9 3 1 100 150 245
9 3 2 100 150 245
9 3 3 100 150 245
9 3 4 100 150 245
9 3 5 100 150 245
9 3 6 100 150 245
9 3 7 100 150 245
9 3 8 100 150 245
9 3 9 100 150 245
9 3 10 100 150 245
9 3 11 100 150 245
9 3 12 100 150 245
9 3 13 100 150 245
9 3 14 100 150 245
9 3 15 100 150 245
9 3 16 100 150 245
9 4 0 100 150 245
9 4 1 100 150 245
9 4 2 100 150 245
9 4 3 100 150 245
9 4 4 100 150 245
9 4 5 100 150 245
9 4 6 100 150 245
9 4 7 100 150 245
10 0 0 100 150 245
10 0 1 100 150 245
10 0 2 100 150 245
10 0 3 100 150 245
10 0 4 100 150 245
10 0 5 100 150 245
10 0 6 100 150 245
10 0 7 100 150 245
10 0 8 100 150 245
10 0 9 100 150 245
10 0 10 100 150 245
10 0 11 100 150 245
10 0 12 100 150 245
10 0 13 100 150 245
10 0 14 100 150 245
10 0 15 100 150 245
10 0 16 100 150 245
10 0 17 100 150 245
10 0 18 100 150 245
10 0 19 100 150 245
10 0 20 100 150 245
10 0 21 100 150 245
10 0 22 100 150 245
10 0 23 100 150 245
10 0 24 100 150 245
10 0 57 100 150 245
10 0 58 100 150 245
10 1 0 100 150 245
10 1 1 100 150 245
10 1 2 100 150 245
10 1 3 100 150 245
10 1 4 100 150 245
10 1 5 100 150 245
10 1 6 100 150 245
10 1 7 100 150 245
10 1 8 100 150 245
10 1 9 100 150 245
10 1 10 100 150 245
10 1 11 100 150 245
10 1 12 100 150 245
10 1 13 100 150 245
10 1 14 100 150 245
10 1 15 100 150 245
10 1 16 100 150 245
10 1 17 100 150 245
10 1 18 100 150 245
10 1 19 100 150 245
10 1 20 100 150 245
10 1 21 100 150 245
10 1 22 100 150 245
10 1 23 100 150 245
10 1 24 100 150 245
10 2 0 100 150 245
10 2 1 100 150 245
10 2 2 100 150 245
10 2 3 100 150 245
10 2 4 100 150 245
10 2 5 100 150 245
10 2 6 100 150 245
10 2 7 100 150 245
10 2 8 100 150 245
10 2 9 100 150 245
10 2 10 100 150 245
10 2 11 100 150 245
10 2 12 100 150 245
10 2 13 100 150 245
10 2 14 100 150 245
10 2 15 100 150 245
10 2 16 100 150 245
10 2 17 100 150 245
10 2 18 100 150 245
10 2 19 100 150 245
10 2 20 100 150 245
10 2 21 100 150 245
10 2 22 100 150 245
10 2 23 100 150 245
10 2 24 100 150 245
10 3 0 100 150 245
10 3 1 100 150 245
10 3 2 100 150 245
10 3 3 100 150 245
10 3 4 100 150 245
10 3 5 100 150 245
10 3 6 100 150 245
10 3 7 100 150 245
10 3 8 100 150 245
10 3 9 100 150 245
10 3 10 100 150 245
10 3 11 100 150 245
10 3 12 100 150 245
10 3 13 100 150 245
10 3 14 100 150 245
10 3 15 100 150 245
10 3 16 100 150 245
10 4 0 100 150 245
10 4 1 100 150 245
10 4 2 100 150 245
10 4 3 100 150 245
10 4 4 100 150 245
10 4 5 100 150 245
10 4 6 100 150 245
10 4 7 100 150 245
11 0 0 100 150 245
11 0 1 100 150 245
11 0 2 100 150 245
11 0 3 100 150 245
11 0 4 100 150 245
11 0 5 100 150 245
11 0 6 100 150 245
11 0 7 100 150 245
11 0 8 100 150 245
11 0 9 100 150 245
11 0 10 100 150 245
11 0 11 100 150 245
11 0 12 100 150 245
11 0 13 100 150 245
11 0 14 100 150 245
11 0 15 100 150 245
11 0 16 100 150 245
11 0 17 100 150 245
11 0 18 100 150 245
11 0 19 100 150 245
11 0 20 100 150 245
11 0 21 100 150 245
11 0 22 100 150 245
11 0 23 100 150 245
11 0 24 100 150 245
11 0 25 100 150 245
11 0 58 100 150 245
11 1 0 100 150 245
11 1 1 100 150 245
11 1 2 100 150 245
11 1 3 100 150 245
11 1 4 100 150 245
11 1 5 100 150 245
11 1 6 100 150 245
11 1 7 100 150 245
11 1 8 100 150 245
11 1 9 100 150 245
11 1 10 100 150 245
11 1 11 100 150 245
11 1 12 100 150 245
11 1 13 100 150 245
11 1 14 100 150 245
11 1 15 100 150 245
11 1 16 100 150 245
11 1 17 100 150 245
11 1 18 100 150 245
11 1 19 100 150 245
11 1 20 100 150 245
11 1 21 100 150 245
11 1 22 100 150 245
11 1 23 100 150 245
11 1 24 100 150 245
11 1 25 100 150 245
11 2 0 100 150 245
11 2 1 100 150 245
11 2 2 100 150 245
11 2 3 100 150 245
11 2 4 100 150 245
11 2 5 100 150 245
11 2 6 100 150 245
11 2 7 100 150 245
11 2 8 100 150 245
11 2 9 100 150 245
11 2 10 100 150 245
11 2 11 100 150 245
11 2 12 100 150 245
11 2 13 100 150 245
11 2 14 100 150 245
11 2 15 100 150 245
11 2 16 100 150 245
11 2 17 100 150 245
11 2 18 100 150 245
11 2 19 100 150 245
11 2 20 100 150 245
11 2 21 100 150 245
11 2 22 100 150 245
11 2 23 100 150 245
11 2 24 100 150 245
11 2 25 100 150 245
11 3 0 100 150 245
11 3 1 100 150 245
11 3 2 100 150 245
11 3 3 100 150 245
11 3 4 100 150 245
11 3 5 100 150 245
11 3 6 100 150 245
11 3 7 100 150 245
11 3 8 100 150 245
11 3 9 100 150 245
11 3 10 100 150 245
11 3 11 100 150 245
11 3 12 100 150 245
11 3 13 100 150 245
11 3 14 100 150 245
11 3 15 100 150 245
11 3 18 100 150 245
11 3 19 100 150 245
11 3 20 100 150 245
11 4 0 100 150 245
11 4 1 100 150 245
11 4 2 100 150 245
11 4 3 100 150 245
12 0 0 100 150 245
12 0 1 100 150 245
12 0 2 100 150 245
12 0 3 100 150 245
12 0 4 100 150 245
12 0 5 100 150 245
12 0 6 100 150 245
12 0 7 100 150 245
12 0 8 100 150 245
12 0 9 100 150 245
12 0 10 100 150 245
12 0 11 100 150 245
12 0 12 100 150 245
12 0 13 100 150 245
12 0 14 100 150 245
12 0 15 100 150 245
12 0 16 100 150 245
12 0 17 100 150 245
12 0 18 100 150 245
12 0 19 100 150 245
12 0 20 100 150 245
12 0 21 100 150 245
12 0 22 100 150 245
12 0 23 100 150 245
12 0 24 100 150 245
12 0 25 100 150 245
12 0 26 100 150 245
12 1 1 100 150 245
12 1 2 100 150 245
12 1 3 100 150 245
12 1 4 100 150 245
12 1 5 100 150 245
12 1 6 100 150 245
12 1 7 100 150 245
12 1 8 100 150 245
12 1 9 100 150 245
12 1 10 100 150 245
12 1 11 100 150 245
12 1 12 100 150 245
12 1 13 100 150 245
12 1 14 100 150 245
12 1 15 100 150 245
12 1 16 100 150 245
12 1 17 100 150 245
12 1 18 100 150 245
12 1 19 100 150 245
12 1 20 100 150 245
12 1 21 100 150 245
12 1 22 100 150 245
12 1 23 100 150 245
12 1 24 100 150 245
12 1 25 100 150 245
12 1 26 100 150 245
12 2 1 100 150 245
12 2 2 100 150 245
12 2 3 100 150 245
12 2 4 100 150 245
12 2 5 100 150 245
12 2 6 100 150 245
12 2 7 100 150 245
12 2 8 100 150 245
12 2 9 100 150 245
12 2 10 100 150 245
12 2 11 100 150 245
12 2 12 100 150 245
12 2 13 100 150 245
12 2 14 100 150 245
12 2 15 100 150 245
12 2 16 100 150 245
12 2 17 100 150 245
12 2 18 100 150 245
12 2 19 100 150 245
12 2 20 100 150 245
12 2 21 100 150 245
12 2 22 100 150 245
12 2 23 100 150 245
12 2 24 100 150 245
12 2 25 100 150 245
12 2 26 100 150 245
12 3 1 100 150 245
12 3 2 100 150 245
12 3 3 100 150 245
12 3 4 100 150 245
12 3 5 100 150 245
12 3 6 100 150 245
12 3 7 100 150 245
12 3 8 100 150 245
12 3 9 100 150 245
12 3 10 100 150 245
12 3 11 100 150 245
12 3 12 100 150 245
12 3 13 100 150 245
12 3 14 100 150 245
12 3 15 100 150 245
12 3 17 100 150 245
12 3 18 100 150 245
12 3 19 100 150 245
12 3 20 100 150 245
12 3 21 100 150 245
12 3 22 100 150 245
12 4 3 100 150 245
13 0 3 100 150 245
13 0 4 100 150 245
13 0 5 100 150 245
13 0 6 100 150 245
13 0 7 100 150 245
13 0 8 100 150 245
13 0 9 100 150 245
13 0 10 100 150 245
13 0 11 100 150 245
13 0 12 100 150 245
13 0 13 100 150 245
13 0 14 100 150 245
13 0 15 100 150 245
13 0 16 100 150 245
13 0 17 100 150 245
13 0 18 100 150 245
13 0 19 100 150 245
13 0 20 100 150 245
13 0 21 100 150 245
13 0 22 100 150 245
13 0 23 100 150 245
13 0 24 100 150 245
13 0 25 100 150 245
13 0 26 100 150 245
13 0 27 100 150 245
13 1 4 100 150 245
13 1 5 100 150 245
13 1 6 100 150 245
13 1 7 100 150 245
13 1 8 100 150 245
13 1 9 100 150 245
13 1 10 100 150 245
13 1 11 100 150 245
13 1 12 100 150 245
13 1 13 100 150 245
13 1 14 100 150 245
13 1 15 100 150 245
13 1 16 100 150 245
13 1 17 100 150 245
13 1 18 100 150 245
13 1 19 100 150 245
13 1 20 100 150 245
13 1 21 100 150 245
13 1 22 100 150 245
13 1 23 100 150 245
13 1 24 100 150 245
13 1 25 100 150 245
13 1 26 100 150 245
13 1 27 100 150 245
13 2 4 100 150 245
13 2 5 100 150 245
13 2 6 100 150 245
13 2 7 100 150 245
13 2 8 100 150 245
13 2 9 100 150 245
13 2 10 100 150 245
13 2 11 100 150 245
13 2 12 100 150 245
13 2 13 100 150 245
13 2 14 100 150 245
13 2 15 100 150 245
13 2 16 100 150 245
13 2 17 100 150 245
13 2 18 100 150 245
13 2 19 100 150 245
13 2 20 100 150 245
13 2 21 100 150 245
13 2 22 100 150 245
13 2 23 100 150 245
13 2 24 100 150 245
13 2 25 100 150 245
13 2 26 100 150 245
13 2 27 100 150 245
13 3 4 100 150 245
13 3 5 100 150 245
13 3 6 100 150 245
13 3 7 100 150 245
13 3 8 100 150 245
13 3 9 100 150 245
13 3 10 100 150 245
13 3 11 100 150 245
13 3 12 100 150 245
13 3 13 100 150 245
13 3 14 100 150 245
13 3 15 100 150 245
13 3 16 100 150 245
13 3 17 100 150 245
13 3 18 100 150 245
13 3 19 100 150 245
13 3 20 100 150 245
13 3 21 100 150 245
13 3 22 100 150 245
14 0 6 100 150 245
14 0 7 100 150 245
14 0 8 100 150 245
14 0 9 100 150 245
14 0 10 100 150 245
14 0 11 100 150 245
14 0 12 100 150 245
14 0 13 100 150 245
14 0 14 100 150 245
14 0 15 100 150 245
14 0 16 100 150 245
14 0 17 100 150 245
14 0 18 100 150 245
14 0 19 100 150 245
14 0 20 100 150 245
14 0 21 100 150 245
14 0 22 100 150 245
14 0 23 100 150 245
14 0 24 100 150 245
14 0 25 100 150 245
14 0 26 100 150 245
14 0 27 100 150 245
14 0 28 100 150 245
14 0 29 100 150 245
14 1 6 100 150 245
14 1 7 100 150 245
14 1 8 100 150 245
14 1 9 100 150 245
14 1 10 100 150 245
14 1 11 100 150 245
14 1 12 100 150 245
14 1 13 100 150 245
14 1 14 100 150 245
14 1 15 100 150 245
14 1 16 100 150 245
14 1 17 100 150 245
14 1 18 100 150 245
14 1 19 100 150 245
14 1 20 100 150 245
14 1 21 100 150 245
14 1 22 100 150 245
14 1 23 100 150 245
14 1 24 100 150 245
14 1 25 100 150 245
14 1 26 100 150 245
14 1 27 100 150 245
14 1 28 100 150 245
14 2 6 100 150 245
14 2 7 100 150 245
14 2 8 100 150 245
14 2 9 100 150 245
14 2 10 100 150 245
14 2 11 100 150 245
14 2 12 100 150 245
14 2 13 100 150 245
14 2 14 100 150 245
14 2 15 100 150 245
14 2 16 100 150 245
14 2 17 100 150 245
14 2 18 100 150 245
14 2 19 100 150 245
14 2 20 100 150 245
14 2 21 100 150 245
14 2 22 100 150 245
14 2 23 100 150 245
14 2 24 100 150 245
14 2 25 100 150 245
14 2 26 100 150 245
14 2 27 100 150 245
14 2 28 100 150 245
14 3 6 100 150 245
14 3 7 100 150 245
14 3 8 100 150 245
14 3 9 100 150 245
14 3 10 100 150 245
14 3 11 100 150 245
14 3 12 100 150 245
14 3 13 100 150 245
14 3 14 100 150 245
14 3 15 100 150 245
14 3 16 100 150 245
14 3 17 100 150 245
14 3 18 100 150 245
14 3 19 100 150 245
14 3 20 100 150 245
14 3 21 100 150 245
14 3 22 100 150 245
14 3 23 100 150 245
15 0 8 100 150 245
15 0 9 100 150 245
15 0 10 100 150 245
15 0 11 100 150 245
15 0 12 100 150 245
15 0 13 100 150 245
15 0 14 100 150 245
15 0 15 100 150 245
15 0 16 100 150 245
15 0 17 100 150 245
15 0 18 100 150 245
15 0 19 100 150 245
15 0 20 100 150 245
15 0 21 100 150 245
15 0 22 100 150 245
15 0 23 100 150 245
15 0 24 100 150 245
15 0 25 100 150 245
15 0 26 100 150 245
15 0 27 100 150 245
15 0 28 100 150 245
15 0 29 100 150 245
15 0 30 100 150 245
15 1 9 100 150 245
15 1 10 100 150 245
15 1 11 100 150 245
15 1 12 100 150 245
15 1 13 100 150 245
15 1 14 100 150 245
15 1 15 100 150 245
15 1 16 100 150 245
15 1 17 100 150 245
15 1 18 100 150 245
15 1 19 100 150 245
15 1 20 100 150 245
15 1 21 100 150 245
15 1 22 100 150 245
15 1 23 100 150 245
15 1 24 100 150 245
15 1 25 100 150 245
15 1 26 100 150 245
15 1 27 100 150 245
15 1 28 100 150 245
15 1 29 100 150 245
15 1 30 100 150 245
15 2 9 100 150 245
15 2 10 100 150 245
15 2 11 100 150 245
15 2 12 100 150 245
15 2 13 100 150 245
15 2 14 100 150 245
15 2 15 100 150 245
15 2 16 100 150 245
15 2 17 100 150 245
15 2 18 100 150 245
15 2 19 100 150 245
15 2 20 100 150 245
15 2 21 100 150 245
15 2 22 100 150 245
15 2 23 100 150 245
15 2 24 100 150 245
15 2 25 100 150 245
15 2 26 100 150 245
15 2 27 100 150 245
15 2 28 100 150 245
15 2 29 100 150 245
15 3 9 100 150 245
15 3 10 100 150 245
15 3 11 100 150 245
15 3 12 100 150 245
15 3 13 100 150 245
15 3 14 100 150 245
15 3 15 100 150 245
15 3 16 100 150 245
15 3 17 100 150 245
15 3 18 100 150 245
15 3 19 100 150 245
15 3 20 100 150 245
15 3 21 100 150 245
15 3 22 100 150 245
15 3 23 100 150 245
15 3 33 100 150 245
16 0 11 100 150 245
16 0 12 100 150 245
16 0 13 100 150 245
16 0 14 100 150 245
16 0 15 100 150 245
16 0 16 100 150 245
16 0 17 100 150 245
16 0 18 100 150 245
16 0 19 100 150 245
16 0 20 100 150 245
16 0 21 100 150 245
16 0 22 100 150 245
16 0 23 100 150 245
16 0 24 100 150 245
16 0 25 100 150 245
16 0 26 100 150 245
16 0 27 100 150 245
16 0 28 100 150 245
16 0 29 100 150 245
16 0 30 100 150 245
16 0 31 100 150 245
16 1 11 100 150 245
16 1 12 100 150 245
16 1 13 100 150 245
16 1 14 100 150 245
16 1 15 100 150 245
16 1 16 100 150 245
16 1 17 100 150 245
16 1 18 100 150 245
16 1 19 100 150 245
16 1 20 100 150 245
16 1 21 100 150 245
16 1 22 100 150 245
16 1 23 100 150 245
16 1 24 100 150 245
16 1 25 100 150 245
16 1 26 100 150 245
16 1 27 100 150 245
16 1 28 100 150 245
16 1 29 100 150 245
16 1 30 100 150 245
16 1 31 100 150 245
16 2 11 100 150 245
16 2 12 100 150 245
16 2 13 100 150 245
16 2 14 100 150 245
16 2 15 100 150 245
16 2 16 100 150 245
16 2 17 100 150 245
16 2 18 100 150 245
16 2 19 100 150 245
16 2 20 100 150 245
16 2 21 100 150 245
16 2 22 100 150 245
16 2 23 100 150 245
16 2 24 100 150 245
16 2 25 100 150 245
16 2 26 100 150 245
16 2 27 100 150 245
16 2 28 100 150 245
16 2 29 100 150 245
16 2 30 100 150 245
16 2 31 100 150 245
16 3 11 100 150 245
16 3 12 100 150 245
16 3 13 100 150 245
16 3 14 100 150 245
16 3 15 100 150 245
16 3 16 100 150 245
16 3 17 100 150 245
16 3 18 100 150 245
16 3 19 100 150 245
16 3 20 100 150 245
16 3 21 100 150 245
16 3 22 100 150 245
16 3 23 100 150 245
16 3 24 100 150 245
17 0 14 100 150 245
17 0 15 100 150 245
17 0 16 100 150 245
17 0 17 100 150 245
17 0 18 100 150 245
17 0 19 100 150 245
17 0 20 100 150 245
17 0 21 100 150 245
17 0 22 100 150 245
17 0 23 100 150 245
17 0 24 100 150 245
17 0 25 100 150 245
17 0 26 100 150 245
17 0 27 100 150 245
17 0 28 100 150 245
17 0 29 100 150 245
17 0 30 100 150 245
17 0 31 100 150 245
17 0 32 100 150 245
17 1 14 100 150 245
17 1 15 100 150 245
17 1 16 100 150 245
17 1 17 100 150 245
17 1 18 100 150 245
17 1 19 100 150 245
17 1 20 100 150 245
17 1 21 100 150 245
17 1 22 100 150 245
17 1 23 100 150 245
17 1 24 100 150 245
17 1 25 100 150 245
17 1 26 100 150 245
17 1 27 100 150 245
17 1 28 100 150 245
17 1 29 100 150 245
17 1 30 100 150 245
17 1 31 100 150 245
17 1 32 100 150 245
17 2 14 100 150 245
17 2 15 100 150 245
17 2 16 100 150 245
17 2 17 100 150 245
17 2 18 100 150 245
17 2 19 100 150 245
17 2 20 100 150 245
17 2 21 100 150 245
17 2 22 100 150 245
17 2 23 100 150 245
17 2 24 100 150 245
17 2 25 100 150 245
17 2 26 100 150 245
17 2 27 100 150 245
17 2 28 100 150 245
17 2 29 100 150 245
17 2 30 100 150 245
17 2 31 100 150 245
17 2 32 100 150 245
17 3 14 100 150 245
17 3 15 100 150 245
17 3 16 100 150 245
17 3 17 100 150 245
17 3 18 100 150 245
17 3 19 100 150 245
17 3 20 100 150 245
17 3 21 100 150 245
17 3 22 100 150 245
17 3 23 100 150 245
17 3 24 100 150 245
17 3 37 100 150 245
18 0 16 100 150 245
18 0 17 100 150 245
18 0 18 100 150 245
18 0 19 100 150 245
18 0 20 100 150 245
18 0 21 100 150 245
18 0 22 100 150 245
18 0 23 100 150 245
18 0 24 100 150 245
18 0 25 100 150 245
18 0 26 100 150 245
18 0 27 100 150 245
18 0 28 100 150 245
18 0 29 100 150 245
18 0 30 100 150 245
18 0 31 100 150 245
18 0 32 100 150 245
18 0 33 100 150 245
18 0 34 100 150 245
18 1 17 100 150 245
18 1 18 100 150 245
18 1 19 100 150 245
18 1 20 100 150 245
18 1 21 100 150 245
18 1 22 100 150 245
18 1 23 100 150 245
18 1 24 100 150 245
18 1 25 100 150 245
18 1 26 100 150 245
18 1 27 100 150 245
18 1 28 100 150 245
18 1 29 100 150 245
18 1 30 100 150 245
18 1 31 100 150 245
18 1 32 100 150 245
18 1 33 100 150 245
18 2 17 100 150 245
18 2 18 100 150 245
18 2 19 100 150 245
18 2 20 100 150 245
18 2 21 100 150 245
18 2 22 100 150 245
18 2 23 100 150 245
18 2 24 100 150 245
18 2 25 100 150 245
18 2 26 100 150 245
18 2 27 100 150 245
18 2 28 100 150 245
18 2 29 100 150 245
18 2 30 100 150 245
18 2 31 100 150 245
18 2 32 100 150 245
18 2 33 100 150 245
18 2 34 100 150 245
18 3 17 100 150 245
18 3 18 100 150 245
18 3 19 100 150 245
18 3 20 100 150 245
18 3 21 100 150 245
18 3 22 100 150 245
18 3 23 100 150 245
18 3 24 100 150 245
18 3 25 100 150 245
18 3 33 100 150 245
18 3 34 100 150 245
18 3 37 100 150 245
18 3 38 100 150 245
18 4 37 100 150 245
19 0 19 100 150 245
19 0 20 100 150 245
19 0 21 100 150 245
19 0 22 100 150 245
19 0 23 100 150 245
19 0 24 100 150 245
19 0 25 100 150 245
19 0 26 100 150 245
19 0 27 100 150 245
19 0 28 100 150 245
19 0 29 100 150 245
19 0 30 100 150 245
19 0 31 100 150 245
19 0 32 100 150 245
19 0 33 100 150 245
19 0 34 100 150 245
19 0 35 100 150 245
19 1 19 100 150 245
19 1 20 100 150 245
19 1 21 100 150 245
19 1 22 100 150 245
19 1 23 100 150 245
19 1 24 100 150 245
19 1 25 100 150 245
19 1 26 100 150 245
19 1 27 100 150 245
19 1 28 100 150 245
19 1 29 100 150 245
19 1 30 100 150 245
19 1 31 100 150 245
19 1 32 100 150 245
19 1 33 100 150 245
19 1 34 100 150 245
19 1 35 100 150 245
19 2 19 100 150 245
19 2 20 100 150 245
19 2 21 100 150 245
19 2 22 100 150 245
19 2 23 100 150 245
19 2 24 100 150 245
19 2 25 100 150 245
19 2 26 100 150 245
19 2 27 100 150 245
19 2 28 100 150 245
19 2 29 100 150 245
19 2 30 100 150 245
19 2 31 100 150 245
19 2 32 100 150 245
19 2 33 100 150 245
19 2 34 100 150 245
19 2 35 100 150 245
19 3 19 100 150 245
19 3 20 100 150 245
19 3 21 100 150 245
19 3 22 100 150 245
19 3 23 100 150 245
19 3 24 100 150 245
19 3 25 100 150 245
19 3 33 100 150 245
19 3 34 100 150 245
19 3 35 100 150 245
19 3 36 100 150 245
20 0 22 100 150 245
20 0 23 100 150 245
20 0 24 100 150 245
20 0 25 100 150 245
20 0 26 100 150 245
20 0 27 100 150 245
20 0 28 100 150 245
20 0 29 100 150 245
20 0 30 100 150 245
20 0 31 100 150 245
20 0 32 100 150 245
20 0 33 100 150 245
20 0 34 100 150 245
20 0 35 100 150 245
20 0 36 100 150 245
20 1 22 100 150 245
20 1 23 100 150 245
20 1 24 100 150 245
20 1 25 100 150 245
20 1 26 100 150 245
20 1 27 100 150 245
20 1 28 100 150 245
20 1 29 100 150 245
20 1 30 100 150 245
20 1 31 100 150 245
20 1 32 100 150 245
20 1 33 100 150 245
20 1 34 100 150 245
20 1 35 100 150 245
20 1 36 100 150 245
20 2 22 100 150 245
20 2 23 100 150 245
20 2 24 100 150 245
20 2 25 100 150 245
20 2 26 100 150 245
20 2 27 100 150 245
20 2 28 100 150 245
20 2 29 100 150 245
20 2 30 100 150 245
20 2 31 100 150 245
20 2 32 100 150 245
20 2 33 100 150 245
20 2 34 100 150 245
20 2 35 100 150 245
20 2 36 100 150 245
20 3 22 100 150 245
20 3 23 100 150 245
20 3 24 100 150 245
20 3 25 100 150 245
20 3 26 100 150 245
20 3 33 100 150 245
20 3 34 100 150 245
20 3 35 100 150 245
20 3 36 100 150 245
21 0 24 100 150 245
21 0 25 100 150 245
21 0 26 100 150 245
21 0 27 100 150 245
21 0 28 100 150 245
21 0 29 100 150 245
21 0 30 100 150 245
21 0 31 100 150 245
21 0 32 100 150 245
21 0 33 100 150 245
21 0 34 100 150 245
21 0 35 100 150 245
21 0 36 100 150 245
21 0 37 100 150 245
21 0 38 100 150 245
21 1 25 100 150 245
21 1 26 100 150 245
21 1 27 100 150 245
21 1 28 100 150 245
21 1 29 100 150 245
21 1 30 100 150 245
21 1 31 100 150 245
21 1 32 100 150 245
21 1 33 100 150 245
21 1 34 100 150 245
21 1 35 100 150 245
21 1 36 100 150 245
21 1 37 100 150 245
21 1 38 100 150 245
21 2 25 100 150 245
21 2 26 100 150 245
21 2 27 100 150 245
21 2 28 100 150 245
21 2 29 100 150 245
21 2 30 100 150 245
21 2 31 100 150 245
21 2 32 100 150 245
21 2 33 100 150 245
21 2 34 100 150 245
21 2 35 100 150 245
21 2 36 100 150 245
21 2 37 100 150 245
21 2 38 100 150 245
21 3 25 100 150 245
21 3 29 100 150 245
21 3 33 100 150 245
21 3 34 100 150 245
21 3 35 100 150 245
21 3 36 100 150 245
21 3 37 100 150 245
21 3 41 100 150 245
22 0 27 100 150 245
22 0 28 100 150 245
22 0 29 100 150 245
22 0 30 100 150 245
22 0 31 100 150 245
22 0 32 100 150 245
22 0 33 100 150 245
22 0 34 100 150 245
22 0 35 100 150 245
22 0 36 100 150 245
22 0 37 100 150 245
22 0 38 100 150 245
22 0 39 100 150 245
22 1 27 100 150 245
22 1 28 100 150 245
22 1 29 100 150 245
22 1 30 100 150 245
22 1 31 100 150 245
22 1 32 100 150 245
22 1 33 100 150 245
22 1 34 100 150 245
22 1 35 100 150 245
22 1 36 100 150 245
22 1 37 100 150 245
22 1 38 100 150 245
22 1 39 100 150 245
22 2 27 100 150 245
22 2 28 100 150 245
22 2 29 100 150 245
22 2 30 100 150 245
22 2 31 100 150 245
22 2 32 100 150 245
22 2 33 100 150 245
22 2 34 100 150 245
22 2 35 100 150 245
22 2 36 100 150 245
22 2 37 100 150 245
22 2 38 100 150 245
22 2 39 100 150 245
22 2 61 100 150 245
22 3 27 100 150 245
22 3 28 100 150 245
22 3 29 100 150 245
22 3 30 100 150 245
22 3 32 100 150 245
22 3 33 100 150 245
22 3 34 100 150 245
22 3 35 100 150 245
22 3 36 100 150 245
22 3 37 100 150 245
22 3 38 100 150 245
22 3 41 100 150 245
23 0 29 100 150 245
23 0 30 100 150 245
23 0 31 100 150 245
23 0 32 100 150 245
23 0 33 100 150 245
23 0 34 100 150 245
23 0 35 100 150 245
23 0 36 100 150 245
23 0 37 100 150 245
23 0 38 100 150 245
23 0 39 100 150 245
23 0 40 100 150 245
23 1 30 100 150 245
23 1 31 100 150 245
23 1 32 100 150 245
23 1 33 100 150 245
23 1 34 100 150 245
23 1 35 100 150 245
23 1 36 100 150 245
23 1 37 100 150 245
23 1 38 100 150 245
23 1 39 100 150 245
23 1 40 100 150 245
23 2 30 100 150 245
23 2 31 100 150 245
23 2 32 100 150 245
23 2 33 100 150 245
23 2 34 100 150 245
23 2 35 100 150 245
23 2 36 100 150 245
23 2 37 100 150 245
23 2 38 100 150 245
23 2 39 100 150 245
23 2 40 100 150 245
23 3 30 100 150 245
23 3 32 100 150 245
23 3 33 100 150 245
23 3 34 100 150 245
23 3 35 100 150 245
23 3 36 100 150 245
23 3 37 100 150 245
23 3 38 100 150 245
23 3 39 100 150 245
23 3 40 100 150 245
23 3 41 100 150 245
23 3 43 100 150 245
24 0 32 100 150 245
24 0 33 100 150 245
24 0 34 100 150 245
24 0 35 100 150 245
24 0 36 100 150 245
24 0 37 100 150 245
24 0 38 100 150 245
24 0 39 100 150 245
24 0 40 100 150 245
24 0 41 100 150 245
24 0 42 100 150 245
24 1 33 100 150 245
24 1 34 100 150 245
24 1 35 100 150 245
24 1 36 100 150 245
24 1 37 100 150 245
24 1 38 100 150 245
24 1 39 100 150 245
24 1 40 100 150 245
24 1 41 100 150 245
24 1 42 100 150 245
24 2 33 100 150 245
24 2 34 100 150 245
24 2 35 100 150 245
24 2 36 100 150 245
24 2 37 100 150 245
24 2 38 100 150 245
24 2 39 100 150 245
24 2 40 100 150 245
24 2 41 100 150 245
24 2 42 100 150 245
24 3 34 100 150 245
24 3 35 100 150 245
24 3 36 100 150 245
24 3 37 100 150 245
24 3 38 100 150 245
24 3 39 100 150 245
24 3 40 100 150 245
24 3 41 100 150 245
24 3 42 100 150 245
25 0 35 100 150 245
25 0 36 100 150 245
25 0 37 100 150 245
25 0 38 100 150 245
25 0 39 100 150 245
25 0 40 100 150 245
25 0 41 100 150 245
25 0 42 100 150 245
25 0 43 100 150 245
25 1 35 100 150 245
25 1 36 100 150 245
25 1 37 100 150 245
25 1 38 100 150 245
25 1 39 100 150 245
25 1 40 100 150 245
25 1 41 100 150 245
25 1 42 100 150 245
25 1 43 100 150 245
25 2 35 100 150 245
25 2 36 100 150 245
25 2 37 100 150 245
25 2 38 100 150 245
25 2 39 100 150 245
25 2 40 100 150 245
25 2 41 100 150 245
25 2 42 100 150 245
25 2 43 100 150 245
25 3 41 100 150 245
25 3 42 100 150 245
25 3 43 100 150 245
25 3 44 100 150 245
26 0 37 100 150 245
26 0 38 100 150 245
26 0 39 100 150 245
26 0 40 100 150 245
26 0 41 100 150 245
26 0 42 100 150 245
26 0 43 100 150 245
26 0 44 100 150 245
26 1 38 100 150 245
26 1 39 100 150 245
26 1 40 100 150 245
26 1 41 100 150 245
26 1 42 100 150 245
26 1 43 100 150 245
26 1 44 100 150 245
26 2 38 100 150 245
26 2 39 100 150 245
26 2 40 100 150 245
26 2 41 100 150 245
26 2 42 100 150 245
26 2 43 100 150 245
26 2 44 100 150 245
26 3 45 100 150 245
27 0 40 100 150 245
27 0 41 100 150 245
27 0 42 100 150 245
27 0 43 100 150 245
27 0 44 100 150 245
27 0 45 100 150 245
27 0 46 100 150 245
27 1 40 100 150 245
27 1 41 100 150 245
27 1 42 100 150 245
27 1 43 100 150 245
27 1 44 100 150 245
27 1 45 100 150 245
27 1 46 100 150 245
27 2 40 100 150 245
27 2 41 100 150 245
27 2 42 100 150 245
27 2 43 100 150 245
27 2 44 100 150 245
27 2 45 100 150 245
27 2 46 100 150 245
28 0 42 100 150 245
28 0 43 100 150 245
28 0 44 100 150 245
28 0 45 100 150 245
28 0 46 100 150 245
28 0 47 100 150 245
28 1 43 100 150 245
28 1 44 100 150 245
28 1 45 100 150 245
28 1 46 100 150 245
28 1 47 100 150 245
28 2 43 100 150 245
28 2 44 100 150 245
28 2 45 100 150 245
28 2 46 100 150 245
28 2 47 100 150 245
29 0 45 100 150 245
29 0 46 100 150 245
29 0 47 100 150 245
29 0 48 100 150 245
29 0 49 100 150 245
29 1 45 100 150 245
29 1 46 100 150 245
29 1 47 100 150 245
29 1 48 100 150 245
29 1 49 100 150 245
29 2 46 100 150 245
29 2 47 100 150 245
29 2 48 100 150 245
29 2 49 100 150 245
30 0 48 100 150 245
30 0 49 100 150 245
30 0 50 100 150 245
30 1 48 100 150 245
30 1 49 100 150 245
30 1 50 100 150 245
30 2 48 100 150 245
30 2 49 100 150 245
30 2 50 100 150 245
31 0 50 100 150 245
31 0 51 100 150 245
31 0 52 100 150 245
31 1 51 100 150 245
31 1 52 100 150 245
31 2 51 100 150 245
32 0 53 100 150 245
