ply
format ascii 1.0
element vertex 1017
property float x
property float y
property float z
property uchar red
property uchar green
property uchar blue
end_header
5 3 28 0 175 0
6 1 27 0 175 0
6 2 27 0 175 0
6 2 29 0 175 0
6 3 27 0 175 0
6 3 28 0 175 0
6 3 29 0 175 0
7 1 26 0 175 0
7 1 27 0 175 0
7 1 28 0 175 0
7 2 26 0 175 0
7 2 27 0 175 0
7 2 28 0 175 0
7 2 29 0 175 0
7 3 26 0 175 0
7 3 27 0 175 0
7 3 28 0 175 0
7 3 29 0 175 0
7 3 30 0 175 0
8 0 25 0 175 0
8 0 26 0 175 0
8 0 27 0 175 0
8 0 28 150 240 80
8 0 29 150 240 80
8 0 30 150 240 80
8 0 31 255 0 255
8 0 32 255 0 255
8 0 33 255 0 255
8 0 34 255 0 255
8 0 35 255 0 255
8 0 36 255 0 255
8 0 37 255 0 255
8 0 38 255 0 255
8 1 25 0 175 0
8 1 26 0 175 0
8 1 27 0 175 0
8 1 28 0 175 0
8 2 25 0 175 0
8 2 26 0 175 0
8 2 27 0 175 0
8 2 28 0 175 0
8 2 29 0 175 0
8 2 30 0 175 0
8 3 25 0 175 0
8 3 26 0 175 0
8 3 27 0 175 0
8 3 28 0 175 0
8 3 29 0 175 0
8 3 30 0 175 0
9 0 24 255 120 50
9 0 25 0 175 0
9 0 26 0 175 0
9 0 27 0 175 0
9 0 28 0 175 0
9 0 29 0 175 0
9 0 30 150 240 80
9 0 31 150 240 80
9 0 32 255 0 255
9 0 33 255 0 255
9 0 34 255 0 255
9 0 35 255 0 255
9 0 36 255 0 255
9 0 37 255 0 255
9 0 38 255 0 255
9 0 39 255 0 255
9 1 24 255 120 50
9 1 25 0 175 0
9 1 26 0 175 0
9 1 27 0 175 0
9 1 28 0 175 0
9 1 29 0 175 0
9 1 30 0 175 0
9 2 24 255 120 50
9 2 25 0 175 0
9 2 26 0 175 0
9 2 27 0 175 0
9 2 28 0 175 0
9 2 29 0 175 0
9 2 30 0 175 0
9 3 24 255 120 50
9 3 25 0 175 0
9 3 26 0 175 0
9 3 27 0 175 0
9 3 28 0 175 0
9 3 29 0 175 0
9 3 30 0 175 0
9 4 29 0 175 0
9 4 30 0 175 0
10 0 25 255 120 50
10 0 26 255 120 50
10 0 27 0 175 0
10 0 28 0 175 0
10 0 29 0 175 0
10 0 30 0 175 0
10 0 31 150 240 80
10 0 32 150 240 80
10 0 33 255 0 255
10 0 34 255 0 255
10 0 35 255 0 255
10 0 36 255 0 255
10 0 37 255 0 255
10 0 38 255 0 255
10 0 39 255 0 255
10 0 40 255 0 255
10 1 25 255 120 50
10 1 26 0 175 0
10 1 27 0 175 0
10 1 28 0 175 0
10 1 29 0 175 0
10 1 30 0 175 0
10 1 31 0 175 0
10 1 32 0 175 0
10 1 33 0 175 0
10 2 25 255 120 50
10 2 26 0 175 0
10 2 27 0 175 0
10 2 28 0 175 0
10 2 29 0 175 0
10 2 30 0 175 0
10 2 31 0 175 0
10 2 32 0 175 0
10 3 25 255 120 50
10 3 26 255 120 50
10 3 27 0 175 0
10 3 28 0 175 0
10 3 29 0 175 0
10 3 30 0 175 0
10 3 31 0 175 0
10 3 32 0 175 0
10 4 32 0 175 0
11 0 26 255 120 50
11 0 27 255 120 50
11 0 28 0 175 0
11 0 29 0 175 0
11 0 30 0 175 0
11 0 31 0 175 0
11 0 32 150 240 80
11 0 33 150 240 80
11 0 34 150 240 80
11 0 35 255 0 255
11 0 36 255 0 255
11 0 37 255 0 255
11 0 38 255 0 255
11 0 39 255 0 255
11 0 40 255 0 255
11 1 26 255 120 50
11 1 27 255 120 50
11 1 28 0 175 0
11 1 29 0 175 0
11 1 30 0 175 0
11 1 31 0 175 0
11 1 32 0 175 0
11 1 33 0 175 0
11 1 34 0 175 0
11 2 26 255 120 50
11 2 27 0 175 0
11 2 28 0 175 0
11 2 29 0 175 0
11 2 30 0 175 0
11 2 31 0 175 0
11 2 32 0 175 0
11 2 33 0 175 0
11 2 34 0 175 0
11 3 28 0 175 0
11 3 29 0 175 0
11 3 30 0 175 0
11 3 31 0 175 0
11 3 32 0 175 0
11 3 33 0 175 0
11 3 34 0 175 0
11 4 32 0 175 0
11 4 33 0 175 0
12 0 27 255 120 50
12 0 28 255 120 50
12 0 29 0 175 0
12 0 30 0 175 0
12 0 31 0 175 0
12 0 32 0 175 0
12 0 33 0 175 0
12 0 34 150 240 80
12 0 35 150 240 80
12 0 36 255 0 255
12 0 37 255 0 255
12 0 38 255 0 255
12 0 39 255 0 255
12 0 40 255 0 255
12 0 41 255 0 255
12 1 27 255 120 50
12 1 28 255 120 50
12 1 29 0 175 0
12 1 30 0 175 0
12 1 31 0 175 0
12 1 32 0 175 0
12 1 33 0 175 0
12 1 34 0 175 0
12 1 35 0 175 0
12 2 27 255 120 50
12 2 28 255 120 50
12 2 29 0 175 0
12 2 30 0 175 0
12 2 31 0 175 0
12 2 32 0 175 0
12 2 33 0 175 0
12 2 34 0 175 0
12 2 35 0 175 0
12 3 28 0 175 0
12 3 29 0 175 0
12 3 30 0 175 0
12 3 31 0 175 0
12 3 32 0 175 0
12 3 33 0 175 0
12 3 34 0 175 0
12 3 35 0 175 0
12 4 32 0 175 0
12 4 33 0 175 0
12 4 34 0 175 0
12 4 35 0 175 0
12 4 36 0 175 0
13 0 28 255 120 50
13 0 29 255 120 50
13 0 30 0 175 0
13 0 31 0 175 0
13 0 32 0 175 0
13 0 33 0 175 0
13 0 34 0 175 0
13 0 35 150 240 80
13 0 36 150 240 80
13 0 37 255 0 255
13 0 38 255 0 255
13 0 39 255 0 255
13 0 40 255 0 255
13 0 41 255 0 255
13 0 42 255 0 255
13 1 28 255 120 50
13 1 29 255 120 50
13 1 30 0 175 0
13 1 31 0 175 0
13 1 32 0 175 0
13 1 33 0 175 0
13 1 34 0 175 0
13 1 35 0 175 0
13 1 36 0 175 0
13 2 28 255 120 50
13 2 29 255 120 50
13 2 30 0 175 0
13 2 31 0 175 0
13 2 32 0 175 0
13 2 33 0 175 0
13 2 34 0 175 0
13 2 35 0 175 0
13 2 36 0 175 0
13 2 37 0 175 0
13 3 29 255 120 50
13 3 30 255 120 50
13 3 31 0 175 0
13 3 32 0 175 0
13 3 33 0 175 0
13 3 34 0 175 0
13 3 35 0 175 0
13 3 36 0 175 0
13 3 37 0 175 0
13 3 38 0 175 0
13 4 33 0 175 0
13 4 35 0 175 0
13 4 36 0 175 0
13 4 37 0 175 0
13 5 32 0 175 0
13 5 33 0 175 0
13 5 34 0 175 0
13 5 35 0 175 0
14 0 30 255 120 50
14 0 31 255 120 50
14 0 32 0 175 0
14 0 33 0 175 0
14 0 34 0 175 0
14 0 35 0 175 0
14 0 36 150 240 80
14 0 37 150 240 80
14 0 38 150 240 80
14 0 39 255 0 255
14 0 40 255 0 255
14 0 41 255 0 255
14 0 42 255 0 255
14 0 43 255 0 255
14 1 29 255 120 50
14 1 30 255 120 50
14 1 31 255 120 50
14 1 32 0 175 0
14 1 33 0 175 0
14 1 34 0 175 0
14 1 35 0 175 0
14 1 36 0 175 0
14 1 37 0 175 0
14 2 29 255 120 50
14 2 30 255 120 50
14 2 31 255 120 50
14 2 32 0 175 0
14 2 33 0 175 0
14 2 34 0 175 0
14 2 35 0 175 0
14 2 36 0 175 0
14 2 37 0 175 0
14 2 38 0 175 0
14 3 30 255 120 50
14 3 32 0 175 0
14 3 33 0 175 0
14 3 34 0 175 0
14 3 35 0 175 0
14 3 36 0 175 0
14 3 37 0 175 0
14 3 38 0 175 0
14 3 39 0 175 0
14 4 35 0 175 0
14 4 36 0 175 0
14 4 37 0 175 0
14 4 38 0 175 0
14 5 30 255 120 50
14 5 32 0 175 0
14 5 33 0 175 0
14 5 34 0 175 0
14 5 35 0 175 0
14 5 36 0 175 0
14 5 37 0 175 0
15 0 31 255 120 50
15 0 32 255 120 50
15 0 33 0 175 0
15 0 34 0 175 0
15 0 35 0 175 0
15 0 36 0 175 0
15 0 37 150 240 80
15 0 38 150 240 80
15 0 39 150 240 80
15 0 40 255 0 255
15 0 41 255 0 255
15 0 42 255 0 255
15 0 43 255 0 255
15 0 44 255 0 255
15 1 31 255 120 50
15 1 32 255 120 50
15 1 33 0 175 0
15 1 34 0 175 0
15 1 35 0 175 0
15 1 36 0 175 0
15 1 37 0 175 0
15 1 38 0 175 0
15 1 39 0 175 0
15 1 40 0 175 0
15 2 30 255 120 50
15 2 31 255 120 50
15 2 32 255 120 50
15 2 33 0 175 0
15 2 34 0 175 0
15 2 35 0 175 0
15 2 36 0 175 0
15 2 37 0 175 0
15 2 38 0 175 0
15 2 39 0 175 0
15 3 34 0 175 0
15 3 35 0 175 0
15 3 36 0 175 0
15 3 37 0 175 0
15 3 38 0 175 0
15 3 39 0 175 0
15 4 33 0 175 0
15 4 34 0 175 0
15 4 35 0 175 0
15 4 36 0 175 0
15 4 37 0 175 0
15 4 38 0 175 0
15 5 32 0 175 0
15 5 34 0 175 0
15 5 35 0 175 0
15 5 36 0 175 0
15 5 37 0 175 0
15 5 38 0 175 0
16 0 32 255 120 50
16 0 33 255 120 50
16 0 34 0 175 0
16 0 35 0 175 0
16 0 36 0 175 0
16 0 37 0 175 0
16 0 38 0 175 0
16 0 39 150 240 80
16 0 40 150 240 80
16 0 41 255 0 255
16 0 42 255 0 255
16 0 43 255 0 255
16 0 44 255 0 255
16 0 45 255 0 255
16 1 32 255 120 50
16 1 33 255 120 50
16 1 34 0 175 0
16 1 35 0 175 0
16 1 36 0 175 0
16 1 37 0 175 0
16 1 38 0 175 0
16 1 39 0 175 0
16 1 40 0 175 0
16 1 41 150 240 80
16 2 32 255 120 50
16 2 33 255 120 50
16 2 34 0 175 0
16 2 35 0 175 0
16 2 36 0 175 0
16 2 37 0 175 0
16 2 38 0 175 0
16 2 39 0 175 0
16 2 40 0 175 0
16 3 34 0 175 0
16 3 35 0 175 0
16 3 36 0 175 0
16 3 37 0 175 0
16 3 38 0 175 0
16 3 39 0 175 0
16 3 40 0 175 0
16 4 35 0 175 0
16 4 36 0 175 0
16 4 37 0 175 0
16 4 38 0 175 0
16 4 39 0 175 0
16 5 35 0 175 0
16 5 36 0 175 0
16 5 37 0 175 0
16 5 38 0 175 0
17 0 33 255 120 50
17 0 34 255 120 50
17 0 35 255 120 50
17 0 36 0 175 0
17 0 37 0 175 0
17 0 38 0 175 0
17 0 39 0 175 0
17 0 40 0 175 0
17 0 41 150 240 80
17 0 42 255 0 255
17 0 43 255 0 255
17 0 44 255 0 255
17 0 45 255 0 255
17 0 46 255 0 255
17 1 33 255 120 50
17 1 34 255 120 50
17 1 35 0 175 0
17 1 36 0 175 0
17 1 37 0 175 0
17 1 38 0 175 0
17 1 39 0 175 0
17 1 40 0 175 0
17 1 41 0 175 0
17 2 33 255 120 50
17 2 34 255 120 50
17 2 35 0 175 0
17 2 36 0 175 0
17 2 37 0 175 0
17 2 38 0 175 0
17 2 39 0 175 0
17 2 40 0 175 0
17 2 41 0 175 0
17 3 34 255 120 50
17 3 35 255 120 50
17 3 36 0 175 0
17 3 38 0 175 0
17 3 39 0 175 0
17 3 40 0 175 0
17 4 35 0 175 0
17 4 36 0 175 0
17 4 37 0 175 0
17 4 38 0 175 0
17 4 39 0 175 0
17 5 35 0 175 0
17 5 36 0 175 0
17 5 37 0 175 0
17 5 39 0 175 0
18 0 35 255 120 50
18 0 36 0 175 0
18 0 37 0 175 0
18 0 38 0 175 0
18 0 39 0 175 0
18 0 40 0 175 0
18 0 41 0 175 0
18 0 42 150 240 80
18 0 43 150 240 80
18 0 44 255 0 255
18 0 45 255 0 255
18 0 46 255 0 255
18 1 34 255 120 50
18 1 35 255 120 50
18 1 36 255 120 50
18 1 37 0 175 0
18 1 38 0 175 0
18 1 39 0 175 0
18 1 40 0 175 0
18 1 41 0 175 0
18 1 42 0 175 0
18 2 35 255 120 50
18 2 36 255 120 50
18 2 37 0 175 0
18 2 38 0 175 0
18 2 39 0 175 0
18 2 40 0 175 0
18 2 41 0 175 0
18 2 42 0 175 0
18 3 35 255 120 50
18 3 36 255 120 50
18 3 39 0 175 0
18 3 40 0 175 0
18 3 41 0 175 0
18 4 38 0 175 0
18 4 39 0 175 0
18 4 40 0 175 0
18 5 35 255 120 50
18 5 36 0 175 0
18 5 40 0 175 0
19 0 36 255 120 50
19 0 37 255 120 50
19 0 38 0 175 0
19 0 39 0 175 0
19 0 40 0 175 0
19 0 41 0 175 0
19 0 42 150 240 80
19 0 43 150 240 80
19 0 44 150 240 80
19 0 45 255 0 255
19 0 46 255 0 255
19 0 47 255 0 255
19 1 36 255 120 50
19 1 37 255 120 50
19 1 38 0 175 0
19 1 39 0 175 0
19 1 40 0 175 0
19 1 41 0 175 0
19 1 42 0 175 0
19 2 36 255 120 50
19 2 37 255 120 50
19 2 38 0 175 0
19 2 39 0 175 0
19 2 40 0 175 0
19 2 41 0 175 0
19 2 42 0 175 0
19 2 43 0 175 0
19 2 44 0 175 0
19 3 39 0 175 0
19 3 40 0 175 0
19 3 41 0 175 0
19 3 42 0 175 0
19 3 43 0 175 0
19 4 37 255 120 50
19 4 39 0 175 0
19 4 40 0 175 0
19 5 39 0 175 0
20 0 37 255 120 50
20 0 38 255 120 50
20 0 39 0 175 0
20 0 40 0 175 0
20 0 41 0 175 0
20 0 42 0 175 0
20 0 43 150 240 80
20 0 44 150 240 80
20 0 45 150 240 80
20 0 46 255 0 255
20 0 47 255 0 255
20 0 48 255 0 255
20 1 37 255 120 50
20 1 38 255 120 50
20 1 39 0 175 0
20 1 40 0 175 0
20 1 41 0 175 0
20 1 42 0 175 0
20 1 43 0 175 0
20 1 44 0 175 0
20 1 45 0 175 0
20 2 37 255 120 50
20 2 38 255 120 50
20 2 39 0 175 0
20 2 40 0 175 0
20 2 41 0 175 0
20 2 42 0 175 0
20 2 43 0 175 0
20 2 44 0 175 0
20 2 45 0 175 0
20 3 38 255 120 50
20 3 40 0 175 0
20 3 41 0 175 0
20 3 42 0 175 0
20 3 43 0 175 0
20 3 44 0 175 0
20 4 39 0 175 0
20 4 42 0 175 0
21 0 39 0 175 0
21 0 40 0 175 0
21 0 41 0 175 0
21 0 42 0 175 0
21 0 43 0 175 0
21 0 44 0 175 0
21 0 45 0 175 0
21 0 46 150 240 80
21 0 47 150 240 80
21 0 48 255 0 255
21 0 49 255 0 255
21 1 39 0 175 0
21 1 40 0 175 0
21 1 41 0 175 0
21 1 42 0 175 0
21 1 43 0 175 0
21 1 44 0 175 0
21 1 45 0 175 0
21 1 46 0 175 0
21 1 47 0 175 0
21 2 39 0 175 0
21 2 40 0 175 0
21 2 41 0 175 0
21 2 42 0 175 0
21 2 43 0 175 0
21 2 44 0 175 0
21 2 45 0 175 0
21 2 46 0 175 0
21 3 42 0 175 0
21 3 43 0 175 0
21 3 44 0 175 0
21 3 45 0 175 0
21 4 45 0 175 0
22 0 40 0 175 0
22 0 41 0 175 0
22 0 42 0 175 0
22 0 43 0 175 0
22 0 44 0 175 0
22 0 45 0 175 0
22 0 46 0 175 0
22 0 47 150 240 80
22 0 48 150 240 80
22 0 49 255 0 255
22 0 50 255 0 255
22 1 40 0 175 0
22 1 41 0 175 0
22 1 42 0 175 0
22 1 43 0 175 0
22 1 44 0 175 0
22 1 45 0 175 0
22 1 46 0 175 0
22 1 47 0 175 0
22 2 40 0 175 0
22 2 41 0 175 0
22 2 42 0 175 0
22 2 43 0 175 0
22 2 44 0 175 0
22 2 45 0 175 0
22 2 46 0 175 0
22 2 47 0 175 0
22 3 42 0 175 0
22 3 43 0 175 0
22 3 44 0 175 0
22 3 45 0 175 0
22 3 46 0 175 0
22 3 47 0 175 0
22 4 43 0 175 0
22 4 44 0 175 0
22 4 45 0 175 0
22 4 46 0 175 0
22 4 47 0 175 0
22 5 45 0 175 0
22 5 47 0 175 0
23 0 41 0 175 0
23 0 42 0 175 0
23 0 43 0 175 0
23 0 44 0 175 0
23 0 45 0 175 0
23 0 46 0 175 0
23 0 47 0 175 0
23 0 48 150 240 80
23 0 49 150 240 80
23 0 50 150 240 80
23 0 51 255 0 255
23 1 41 0 175 0
23 1 42 0 175 0
23 1 43 0 175 0
23 1 44 0 175 0
23 1 45 0 175 0
23 1 46 0 175 0
23 1 47 0 175 0
23 1 48 255 240 150
23 2 41 0 175 0
23 2 42 0 175 0
23 2 43 0 175 0
23 2 44 0 175 0
23 2 45 0 175 0
23 2 46 0 175 0
23 2 47 0 175 0
23 2 48 255 240 150
23 3 42 0 175 0
23 3 44 0 175 0
23 3 45 0 175 0
23 3 46 0 175 0
23 3 47 0 175 0
23 3 48 255 240 150
23 4 44 0 175 0
23 4 45 0 175 0
23 4 46 0 175 0
23 4 47 0 175 0
23 4 48 255 240 150
23 5 45 0 175 0
23 5 48 255 240 150
24 0 43 0 175 0
24 0 44 0 175 0
24 0 45 0 175 0
24 0 46 0 175 0
24 0 47 0 175 0
24 0 48 0 175 0
24 0 49 150 240 80
24 0 50 150 240 80
24 0 51 150 240 80
24 1 43 0 175 0
24 1 44 0 175 0
24 1 45 0 175 0
24 1 46 0 175 0
24 1 47 0 175 0
24 1 48 0 175 0
24 1 49 0 175 0
24 1 50 0 175 0
24 2 43 0 175 0
24 2 44 0 175 0
24 2 45 0 175 0
24 2 46 0 175 0
24 2 47 0 175 0
24 2 48 0 175 0
24 2 49 0 175 0
24 3 43 0 175 0
24 3 44 0 175 0
24 3 45 0 175 0
24 3 46 0 175 0
24 3 47 0 175 0
24 3 48 0 175 0
24 3 49 0 175 0
24 4 46 0 175 0
24 4 47 0 175 0
24 4 49 0 175 0
24 5 49 0 175 0
25 0 44 0 175 0
25 0 45 0 175 0
25 0 46 0 175 0
25 0 47 0 175 0
25 0 48 0 175 0
25 0 49 0 175 0
25 0 50 0 175 0
25 0 51 150 240 80
25 0 52 150 240 80
25 1 44 0 175 0
25 1 45 0 175 0
25 1 46 0 175 0
25 1 47 0 175 0
25 1 48 0 175 0
25 1 49 0 175 0
25 1 50 0 175 0
25 2 44 0 175 0
25 2 45 0 175 0
25 2 46 0 175 0
25 2 47 0 175 0
25 2 48 0 175 0
25 2 49 0 175 0
25 2 50 0 175 0
25 2 51 0 175 0
25 3 45 0 175 0
25 3 46 0 175 0
25 3 47 0 175 0
25 3 48 0 175 0
25 3 49 0 175 0
25 3 51 0 175 0
25 3 52 0 175 0
25 4 49 0 175 0
25 4 50 0 175 0
25 4 51 0 175 0
26 0 45 0 175 0
26 0 46 0 175 0
26 0 47 0 175 0
26 0 48 0 175 0
26 0 49 0 175 0
26 0 50 0 175 0
26 0 51 150 240 80
26 0 52 150 240 80
26 0 53 150 240 80
26 1 45 0 175 0
26 1 46 0 175 0
26 1 47 0 175 0
26 1 48 0 175 0
26 1 49 0 175 0
26 1 50 0 175 0
26 1 51 0 175 0
26 1 52 0 175 0
26 1 53 0 175 0
26 2 45 0 175 0
26 2 46 0 175 0
26 2 47 0 175 0
26 2 48 0 175 0
26 2 49 0 175 0
26 2 50 0 175 0
26 2 51 0 175 0
26 2 52 0 175 0
26 2 53 0 175 0
26 3 48 0 175 0
26 3 49 0 175 0
26 3 50 0 175 0
26 3 51 0 175 0
26 3 52 0 175 0
26 3 53 0 175 0
26 4 50 0 175 0
26 4 51 0 175 0
26 4 52 0 175 0
26 5 51 0 175 0
26 5 52 0 175 0
27 0 47 0 175 0
27 0 48 0 175 0
27 0 49 0 175 0
27 0 50 0 175 0
27 0 51 0 175 0
27 0 52 0 175 0
27 0 53 0 175 0
27 0 54 150 240 80
27 1 47 0 175 0
27 1 48 0 175 0
27 1 49 0 175 0
27 1 50 0 175 0
27 1 51 0 175 0
27 1 52 0 175 0
27 1 53 0 175 0
27 1 54 0 175 0
27 2 47 0 175 0
27 2 48 0 175 0
27 2 49 0 175 0
27 2 50 0 175 0
27 2 51 0 175 0
27 2 52 0 175 0
27 2 53 0 175 0
27 2 54 0 175 0
27 3 50 0 175 0
27 3 51 0 175 0
27 3 52 0 175 0
27 3 53 0 175 0
27 3 54 0 175 0
27 4 51 0 175 0
27 4 52 0 175 0
27 4 53 0 175 0
27 5 52 0 175 0
27 5 53 0 175 0
28 0 48 0 175 0
28 0 49 0 175 0
28 0 50 0 175 0
28 0 51 0 175 0
28 0 52 0 175 0
28 0 53 0 175 0
28 0 54 0 175 0
28 0 55 0 175 0
28 1 48 0 175 0
28 1 49 0 175 0
28 1 50 0 175 0
28 1 51 0 175 0
28 1 52 0 175 0
28 1 53 0 175 0
28 1 54 0 175 0
28 1 55 0 175 0
28 2 48 0 175 0
28 2 49 0 175 0
28 2 50 0 175 0
28 2 51 0 175 0
28 2 52 0 175 0
28 2 53 0 175 0
28 2 54 0 175 0
28 2 55 0 175 0
28 3 49 0 175 0
28 3 50 0 175 0
28 3 51 0 175 0
28 3 52 0 175 0
28 3 53 0 175 0
28 3 54 0 175 0
28 3 55 0 175 0
28 4 51 0 175 0
28 4 52 0 175 0
28 4 53 0 175 0
28 4 54 0 175 0
28 5 51 0 175 0
28 5 52 0 175 0
28 5 53 0 175 0
29 0 50 0 175 0
29 0 51 0 175 0
29 0 52 0 175 0
29 0 53 0 175 0
29 0 54 0 175 0
29 0 55 0 175 0
29 0 56 0 175 0
29 1 50 0 175 0
29 1 51 0 175 0
29 1 52 0 175 0
29 1 53 0 175 0
29 1 54 0 175 0
29 1 55 0 175 0
29 1 56 0 175 0
29 2 50 0 175 0
29 2 51 0 175 0
29 2 52 0 175 0
29 2 53 0 175 0
29 2 54 0 175 0
29 2 55 0 175 0
29 2 56 0 175 0
29 3 51 0 175 0
29 3 52 0 175 0
29 3 53 0 175 0
29 3 54 0 175 0
29 3 55 0 175 0
29 4 52 0 175 0
29 4 53 0 175 0
30 0 51 0 175 0
30 0 52 0 175 0
30 0 53 0 175 0
30 0 54 0 175 0
30 0 55 0 175 0
30 0 56 0 175 0
30 0 57 0 175 0
30 1 51 0 175 0
30 1 52 0 175 0
30 1 53 0 175 0
30 1 54 0 175 0
30 1 55 0 175 0
30 1 56 0 175 0
30 2 51 0 175 0
30 2 52 0 175 0
30 2 53 0 175 0
30 2 54 0 175 0
30 2 55 0 175 0
30 2 56 0 175 0
30 3 53 0 175 0
30 3 54 0 175 0
30 3 55 0 175 0
30 3 56 0 175 0
31 0 53 0 175 0
31 0 54 0 175 0
31 0 55 0 175 0
31 0 56 0 175 0
31 0 57 0 175 0
31 1 53 0 175 0
31 1 54 0 175 0
31 1 55 0 175 0
31 1 56 0 175 0
31 1 57 0 175 0
31 2 52 0 175 0
31 2 53 0 175 0
31 2 54 0 175 0
31 2 55 0 175 0
31 2 56 0 175 0
31 2 57 0 175 0
31 3 56 0 175 0
31 3 57 0 175 0
31 4 55 0 175 0
31 4 56 0 175 0
31 4 57 0 175 0
32 0 54 0 175 0
32 0 55 0 175 0
32 0 56 0 175 0
32 0 57 0 175 0
32 0 58 0 175 0
32 1 54 0 175 0
32 1 55 0 175 0
32 1 56 0 175 0
32 1 57 0 175 0
32 1 58 0 175 0
32 2 54 0 175 0
32 2 55 0 175 0
32 2 56 0 175 0
32 2 57 0 175 0
32 2 58 0 175 0
32 3 57 0 175 0
32 3 58 0 175 0
32 4 57 0 175 0
32 4 58 0 175 0
33 0 56 0 175 0
33 0 57 0 175 0
33 0 58 0 175 0
33 0 59 0 175 0
33 1 55 0 175 0
33 1 56 0 175 0
33 1 57 0 175 0
33 1 58 0 175 0
33 1 59 0 175 0
33 2 55 0 175 0
33 2 56 0 175 0
33 2 57 0 175 0
33 2 58 0 175 0
33 2 59 0 175 0
33 3 58 0 175 0
33 3 59 0 175 0
33 4 58 0 175 0
34 0 57 0 175 0
34 0 58 0 175 0
34 0 59 0 175 0
34 0 60 0 175 0
34 1 57 0 175 0
34 1 58 0 175 0
34 1 59 0 175 0
34 1 60 0 175 0
34 2 57 0 175 0
34 2 58 0 175 0
34 2 59 0 175 0
34 2 60 0 175 0
34 3 58 0 175 0
34 3 59 0 175 0
34 3 60 0 175 0
35 0 59 0 175 0
35 0 60 0 175 0
35 0 61 0 175 0
35 1 59 0 175 0
35 1 60 0 175 0
35 1 61 0 175 0
35 2 58 0 175 0
35 2 59 0 175 0
35 2 60 0 175 0
35 2 61 0 175 0
35 3 59 0 175 0
35 3 60 0 175 0
35 3 61 0 175 0
36 0 62 0 175 0
36 1 62 0 175 0
36 2 62 0 175 0
