ply
format ascii 1.0
element vertex 2613
property float x
property float y
property float z
property uchar red
property uchar green
property uchar blue
end_header
86 6 168 0 175 0
86 6 169 0 175 0
86 6 170 0 175 0
86 6 171 0 175 0
86 6 172 0 175 0
86 6 173 0 175 0
86 6 174 0 175 0
86 6 175 0 175 0
86 6 176 0 175 0
86 6 177 0 175 0
86 6 178 0 175 0
86 6 179 0 175 0
86 6 180 0 175 0
86 6 181 0 175 0
86 6 182 0 175 0
86 6 183 0 175 0
86 6 184 0 175 0
86 6 185 0 175 0
86 6 233 100 150 245
86 6 234 100 150 245
86 6 235 100 150 245
86 6 236 100 150 245
86 6 237 100 150 245
86 6 238 100 150 245
86 6 239 100 150 245
86 6 240 100 150 245
86 6 241 100 150 245
86 6 242 100 150 245
86 6 250 100 150 245
86 6 251 100 150 245
86 6 252 100 150 245
86 7 158 0 175 0
86 7 159 0 175 0
86 7 160 0 175 0
86 7 161 0 175 0
86 7 162 0 175 0
86 7 163 0 175 0
86 7 164 0 175 0
86 7 165 0 175 0
86 7 166 0 175 0
86 7 167 0 175 0
86 7 168 0 175 0
86 7 169 0 175 0
86 7 170 0 175 0
86 7 171 0 175 0
86 7 172 0 175 0
86 7 173 0 175 0
86 7 174 0 175 0
86 7 175 0 175 0
86 7 176 0 175 0
86 7 177 0 175 0
86 7 178 0 175 0
86 7 179 0 175 0
86 7 180 0 175 0
86 7 181 0 175 0
86 7 182 0 175 0
86 7 183 0 175 0
86 7 184 0 175 0
86 7 233 100 150 245
86 7 234 100 150 245
86 7 235 100 150 245
86 7 236 100 150 245
86 7 237 100 150 245
86 7 238 100 150 245
86 7 239 100 150 245
86 7 240 100 150 245
86 7 241 100 150 245
86 7 242 100 150 245
86 7 243 100 150 245
86 7 250 100 150 245
86 7 251 100 150 245
86 7 252 100 150 245
86 8 159 0 175 0
86 8 160 0 175 0
86 8 161 0 175 0
86 8 162 0 175 0
86 8 163 0 175 0
86 8 164 0 175 0
86 8 165 0 175 0
86 8 166 0 175 0
86 8 167 0 175 0
86 8 168 0 175 0
86 8 169 0 175 0
86 8 170 0 175 0
86 8 171 0 175 0
86 8 172 0 175 0
86 8 173 0 175 0
86 8 174 0 175 0
86 8 175 0 175 0
86 8 176 0 175 0
86 8 177 0 175 0
86 8 178 0 175 0
86 8 179 0 175 0
86 8 180 0 175 0
86 8 181 0 175 0
86 8 182 0 175 0
86 8 235 100 150 245
86 8 236 100 150 245
86 8 237 100 150 245
86 8 238 100 150 245
86 8 241 100 150 245
86 8 242 100 150 245
86 8 243 100 150 245
86 8 250 100 150 245
86 8 251 100 150 245
86 8 252 100 150 245
86 9 158 0 175 0
86 9 159 0 175 0
86 9 160 0 175 0
86 9 161 0 175 0
86 9 162 0 175 0
86 9 164 0 175 0
86 9 165 0 175 0
86 9 166 0 175 0
86 9 167 0 175 0
86 9 168 0 175 0
86 9 169 0 175 0
86 9 170 0 175 0
86 9 171 0 175 0
86 9 172 0 175 0
86 9 173 0 175 0
86 9 174 0 175 0
86 9 175 0 175 0
86 9 176 0 175 0
86 9 177 0 175 0
86 9 178 0 175 0
86 9 179 0 175 0
86 9 180 0 175 0
86 9 181 0 175 0
86 9 182 0 175 0
86 9 236 100 150 245
86 9 237 100 150 245
86 9 238 100 150 245
86 9 239 100 150 245
86 9 240 100 150 245
86 9 241 100 150 245
86 9 242 100 150 245
86 9 243 100 150 245
86 9 249 100 150 245
86 9 250 100 150 245
86 9 251 100 150 245
86 9 252 100 150 245
86 10 157 0 175 0
86 10 158 0 175 0
86 10 159 0 175 0
86 10 160 0 175 0
86 10 161 0 175 0
86 10 162 0 175 0
86 10 165 0 175 0
86 10 168 0 175 0
86 10 169 0 175 0
86 10 170 0 175 0
86 10 171 0 175 0
86 10 172 0 175 0
86 10 173 0 175 0
86 10 174 0 175 0
86 10 175 0 175 0
86 10 176 0 175 0
86 10 177 0 175 0
86 10 178 0 175 0
86 10 179 0 175 0
86 10 180 0 175 0
86 10 182 0 175 0
86 10 183 0 175 0
86 10 237 100 150 245
86 10 238 100 150 245
86 10 239 100 150 245
86 10 240 100 150 245
86 10 241 100 150 245
86 10 242 100 150 245
86 10 243 100 150 245
86 10 249 100 150 245
86 10 250 100 150 245
86 10 251 100 150 245
86 11 169 0 175 0
86 11 171 0 175 0
86 11 172 0 175 0
86 11 173 0 175 0
86 11 174 0 175 0
86 11 175 0 175 0
86 11 176 0 175 0
86 11 177 0 175 0
86 11 178 0 175 0
86 11 179 0 175 0
86 11 180 0 175 0
86 11 182 0 175 0
86 11 183 0 175 0
86 11 237 100 150 245
86 11 238 100 150 245
86 11 239 100 150 245
86 11 240 100 150 245
86 11 241 100 150 245
86 11 242 100 150 245
86 11 249 100 150 245
86 11 250 100 150 245
86 11 251 100 150 245
86 12 173 0 175 0
86 12 175 0 175 0
86 12 176 0 175 0
86 12 177 0 175 0
86 12 178 0 175 0
86 12 179 0 175 0
86 12 180 0 175 0
86 12 181 0 175 0
86 12 182 0 175 0
86 12 239 100 150 245
86 12 240 100 150 245
86 12 241 100 150 245
86 12 242 100 150 245
86 12 243 100 150 245
86 12 244 100 150 245
86 12 245 100 150 245
86 13 170 0 175 0
86 13 175 0 175 0
86 13 176 0 175 0
86 13 177 0 175 0
86 13 178 0 175 0
86 13 179 0 175 0
86 13 180 0 175 0
86 13 181 0 175 0
86 14 176 0 175 0
86 14 177 0 175 0
86 14 178 0 175 0
86 14 180 0 175 0
86 14 181 0 175 0
86 14 182 0 175 0
86 14 183 0 175 0
86 15 180 0 175 0
86 15 181 0 175 0
86 15 183 0 175 0
86 16 181 0 175 0
86 16 182 0 175 0
86 16 183 0 175 0
87 0 161 0 175 0
87 0 162 0 175 0
87 0 163 0 175 0
87 0 164 0 175 0
87 0 166 0 175 0
87 0 167 0 175 0
87 0 169 0 175 0
87 0 170 0 175 0
87 0 171 0 175 0
87 0 172 0 175 0
87 0 173 0 175 0
87 0 174 0 175 0
87 0 175 0 175 0
87 0 176 0 175 0
87 0 177 0 175 0
87 0 178 0 175 0
87 0 179 0 175 0
87 0 180 0 175 0
87 0 181 0 175 0
87 0 182 0 175 0
87 0 183 0 175 0
87 0 184 0 175 0
87 0 185 0 175 0
87 0 186 150 240 80
87 0 187 150 240 80
87 0 188 150 240 80
87 0 189 150 240 80
87 0 190 150 240 80
87 0 191 150 240 80
87 0 192 150 240 80
87 0 193 255 0 255
87 0 194 255 0 255
87 0 195 255 0 255
87 0 196 255 0 255
87 0 197 255 0 255
87 0 198 255 0 255
87 0 199 255 0 255
87 0 200 255 0 255
87 0 201 255 0 255
87 0 202 255 0 255
87 0 203 255 0 255
87 0 204 255 0 255
87 0 205 255 0 255
87 0 206 255 0 255
87 0 207 255 0 255
87 0 208 255 0 255
87 0 209 255 0 255
87 0 210 255 0 255
87 0 211 255 0 255
87 0 212 255 0 255
87 0 213 255 0 255
87 0 214 255 0 255
87 0 215 255 0 255
87 0 216 255 0 255
87 0 217 255 0 255
87 0 218 255 0 255
87 0 219 255 0 255
87 0 220 255 0 255
87 0 221 255 0 255
87 0 222 255 0 255
87 0 223 255 0 255
87 0 224 255 0 255
87 0 225 255 0 255
87 0 226 255 0 255
87 0 227 255 0 255
87 0 228 255 0 255
87 0 229 255 0 255
87 0 230 255 0 255
87 0 231 255 0 255
87 0 232 255 0 255
87 0 233 255 0 255
87 0 234 255 0 255
87 0 235 255 0 255
87 0 236 255 0 255
87 0 237 255 0 255
87 0 238 255 0 255
87 0 239 255 0 255
87 0 240 255 0 255
87 0 241 255 0 255
87 0 242 255 0 255
87 0 243 255 0 255
87 0 244 255 0 255
87 0 245 75 0 75
87 0 249 75 0 75
87 0 254 75 0 75
87 1 161 0 175 0
87 1 162 0 175 0
87 1 163 0 175 0
87 1 164 0 175 0
87 1 166 0 175 0
87 1 168 0 175 0
87 1 169 0 175 0
87 1 170 0 175 0
87 1 171 0 175 0
87 1 172 0 175 0
87 1 173 0 175 0
87 1 174 0 175 0
87 1 175 0 175 0
87 1 176 0 175 0
87 1 177 0 175 0
87 1 178 0 175 0
87 1 179 0 175 0
87 1 180 0 175 0
87 1 181 0 175 0
87 1 182 0 175 0
87 1 183 0 175 0
87 1 184 0 175 0
87 1 185 0 175 0
87 1 186 150 240 80
87 1 187 150 240 80
87 1 188 150 240 80
87 1 189 150 240 80
87 1 190 150 240 80
87 1 191 150 240 80
87 1 192 150 240 80
87 1 197 255 0 255
87 1 198 255 0 255
87 1 199 255 0 255
87 1 205 255 0 255
87 1 206 255 0 255
87 1 207 255 0 255
87 1 208 255 0 255
87 1 209 255 0 255
87 1 210 255 0 255
87 1 211 255 0 255
87 1 212 255 0 255
87 1 214 255 0 255
87 1 215 255 0 255
87 1 216 255 0 255
87 1 218 255 0 255
87 1 219 255 0 255
87 1 220 255 0 255
87 1 221 255 0 255
87 1 222 255 0 255
87 1 227 255 0 255
87 1 235 100 150 245
87 1 236 100 150 245
87 1 237 100 150 245
87 1 238 100 150 245
87 1 240 100 150 245
87 1 245 75 0 75
87 1 246 75 0 75
87 1 249 75 0 75
87 1 250 75 0 75
87 1 251 75 0 75
87 1 252 75 0 75
87 1 253 75 0 75
87 1 254 75 0 75
87 1 255 75 0 75
87 2 161 0 175 0
87 2 162 0 175 0
87 2 163 0 175 0
87 2 165 0 175 0
87 2 166 0 175 0
87 2 167 0 175 0
87 2 168 0 175 0
87 2 169 0 175 0
87 2 170 0 175 0
87 2 171 0 175 0
87 2 172 0 175 0
87 2 173 0 175 0
87 2 174 0 175 0
87 2 175 0 175 0
87 2 176 0 175 0
87 2 177 0 175 0
87 2 178 0 175 0
87 2 179 0 175 0
87 2 180 0 175 0
87 2 181 0 175 0
87 2 182 0 175 0
87 2 183 0 175 0
87 2 184 0 175 0
87 2 185 0 175 0
87 2 186 150 240 80
87 2 235 100 150 245
87 2 236 100 150 245
87 2 237 100 150 245
87 2 238 100 150 245
87 3 160 0 175 0
87 3 161 0 175 0
87 3 162 0 175 0
87 3 163 0 175 0
87 3 166 0 175 0
87 3 167 0 175 0
87 3 169 0 175 0
87 3 170 0 175 0
87 3 171 0 175 0
87 3 172 0 175 0
87 3 173 0 175 0
87 3 174 0 175 0
87 3 175 0 175 0
87 3 176 0 175 0
87 3 177 0 175 0
87 3 178 0 175 0
87 3 179 0 175 0
87 3 180 0 175 0
87 3 181 0 175 0
87 3 182 0 175 0
87 3 183 0 175 0
87 3 184 0 175 0
87 3 185 0 175 0
87 3 186 150 240 80
87 3 235 100 150 245
87 3 236 100 150 245
87 3 237 100 150 245
87 3 238 100 150 245
87 4 161 0 175 0
87 4 162 0 175 0
87 4 163 0 175 0
87 4 166 0 175 0
87 4 167 0 175 0
87 4 168 0 175 0
87 4 169 0 175 0
87 4 170 0 175 0
87 4 171 0 175 0
87 4 172 0 175 0
87 4 173 0 175 0
87 4 174 0 175 0
87 4 175 0 175 0
87 4 176 0 175 0
87 4 177 0 175 0
87 4 178 0 175 0
87 4 179 0 175 0
87 4 180 0 175 0
87 4 181 0 175 0
87 4 182 0 175 0
87 4 183 0 175 0
87 4 184 0 175 0
87 4 185 0 175 0
87 4 186 0 175 0
87 4 187 0 175 0
87 4 189 0 175 0
87 4 234 100 150 245
87 4 235 100 150 245
87 4 236 100 150 245
87 4 237 100 150 245
87 5 161 0 175 0
87 5 163 0 175 0
87 5 164 0 175 0
87 5 165 0 175 0
87 5 166 0 175 0
87 5 167 0 175 0
87 5 170 0 175 0
87 5 171 0 175 0
87 5 172 0 175 0
87 5 173 0 175 0
87 5 174 0 175 0
87 5 175 0 175 0
87 5 176 0 175 0
87 5 177 0 175 0
87 5 178 0 175 0
87 5 179 0 175 0
87 5 180 0 175 0
87 5 181 0 175 0
87 5 182 0 175 0
87 5 183 0 175 0
87 5 185 0 175 0
87 5 187 0 175 0
87 5 234 100 150 245
87 5 235 100 150 245
87 5 236 100 150 245
87 5 237 100 150 245
87 6 161 0 175 0
87 6 162 0 175 0
87 6 163 0 175 0
87 6 164 0 175 0
87 6 165 0 175 0
87 6 166 0 175 0
87 6 167 0 175 0
87 6 168 0 175 0
87 6 169 0 175 0
87 6 170 0 175 0
87 6 171 0 175 0
87 6 172 0 175 0
87 6 173 0 175 0
87 6 174 0 175 0
87 6 175 0 175 0
87 6 176 0 175 0
87 6 177 0 175 0
87 6 178 0 175 0
87 6 179 0 175 0
87 6 180 0 175 0
87 6 181 0 175 0
87 6 182 0 175 0
87 6 183 0 175 0
87 6 184 0 175 0
87 6 185 0 175 0
87 6 234 100 150 245
87 6 235 100 150 245
87 6 236 100 150 245
87 6 237 100 150 245
87 6 238 100 150 245
87 6 239 100 150 245
87 6 240 100 150 245
87 6 241 100 150 245
87 6 252 100 150 245
87 6 253 100 150 245
87 7 161 0 175 0
87 7 162 0 175 0
87 7 163 0 175 0
87 7 164 0 175 0
87 7 165 0 175 0
87 7 166 0 175 0
87 7 167 0 175 0
87 7 168 0 175 0
87 7 169 0 175 0
87 7 170 0 175 0
87 7 171 0 175 0
87 7 172 0 175 0
87 7 173 0 175 0
87 7 174 0 175 0
87 7 175 0 175 0
87 7 176 0 175 0
87 7 177 0 175 0
87 7 178 0 175 0
87 7 179 0 175 0
87 7 180 0 175 0
87 7 181 0 175 0
87 7 182 0 175 0
87 7 183 0 175 0
87 7 184 0 175 0
87 7 234 100 150 245
87 7 235 100 150 245
87 7 236 100 150 245
87 7 237 100 150 245
87 7 238 100 150 245
87 7 239 100 150 245
87 7 240 100 150 245
87 7 241 100 150 245
87 7 242 100 150 245
87 7 243 100 150 245
87 7 251 100 150 245
87 7 252 100 150 245
87 7 253 100 150 245
87 8 160 0 175 0
87 8 161 0 175 0
87 8 162 0 175 0
87 8 163 0 175 0
87 8 164 0 175 0
87 8 165 0 175 0
87 8 166 0 175 0
87 8 167 0 175 0
87 8 168 0 175 0
87 8 169 0 175 0
87 8 170 0 175 0
87 8 171 0 175 0
87 8 172 0 175 0
87 8 173 0 175 0
87 8 174 0 175 0
87 8 175 0 175 0
87 8 176 0 175 0
87 8 177 0 175 0
87 8 178 0 175 0
87 8 179 0 175 0
87 8 180 0 175 0
87 8 181 0 175 0
87 8 182 0 175 0
87 8 183 0 175 0
87 8 184 0 175 0
87 8 235 100 150 245
87 8 236 100 150 245
87 8 237 100 150 245
87 8 240 100 150 245
87 8 241 100 150 245
87 8 242 100 150 245
87 8 243 100 150 245
87 8 251 100 150 245
87 8 252 100 150 245
87 8 253 100 150 245
87 9 160 0 175 0
87 9 161 0 175 0
87 9 162 0 175 0
87 9 163 0 175 0
87 9 164 0 175 0
87 9 167 0 175 0
87 9 168 0 175 0
87 9 169 0 175 0
87 9 170 0 175 0
87 9 171 0 175 0
87 9 172 0 175 0
87 9 173 0 175 0
87 9 174 0 175 0
87 9 175 0 175 0
87 9 176 0 175 0
87 9 177 0 175 0
87 9 178 0 175 0
87 9 179 0 175 0
87 9 180 0 175 0
87 9 181 0 175 0
87 9 182 0 175 0
87 9 183 0 175 0
87 9 184 0 175 0
87 9 185 0 175 0
87 9 186 0 175 0
87 9 235 100 150 245
87 9 236 100 150 245
87 9 237 100 150 245
87 9 238 100 150 245
87 9 239 100 150 245
87 9 240 100 150 245
87 9 241 100 150 245
87 9 242 100 150 245
87 9 243 100 150 245
87 9 251 100 150 245
87 9 252 100 150 245
87 9 253 100 150 245
87 10 161 0 175 0
87 10 162 0 175 0
87 10 163 0 175 0
87 10 164 0 175 0
87 10 165 0 175 0
87 10 167 0 175 0
87 10 168 0 175 0
87 10 169 0 175 0
87 10 170 0 175 0
87 10 171 0 175 0
87 10 172 0 175 0
87 10 173 0 175 0
87 10 174 0 175 0
87 10 175 0 175 0
87 10 176 0 175 0
87 10 177 0 175 0
87 10 178 0 175 0
87 10 179 0 175 0
87 10 180 0 175 0
87 10 181 0 175 0
87 10 182 0 175 0
87 10 183 0 175 0
87 10 185 0 175 0
87 10 186 0 175 0
87 10 236 100 150 245
87 10 237 100 150 245
87 10 238 100 150 245
87 10 239 100 150 245
87 10 240 100 150 245
87 10 241 100 150 245
87 10 242 100 150 245
87 10 250 100 150 245
87 10 251 100 150 245
87 10 252 100 150 245
87 10 253 100 150 245
87 11 168 0 175 0
87 11 169 0 175 0
87 11 171 0 175 0
87 11 173 0 175 0
87 11 174 0 175 0
87 11 175 0 175 0
87 11 176 0 175 0
87 11 177 0 175 0
87 11 178 0 175 0
87 11 179 0 175 0
87 11 180 0 175 0
87 11 181 0 175 0
87 11 182 0 175 0
87 11 183 0 175 0
87 11 237 100 150 245
87 11 238 100 150 245
87 11 239 100 150 245
87 11 240 100 150 245
87 11 241 100 150 245
87 11 250 100 150 245
87 11 251 100 150 245
87 11 252 100 150 245
87 12 175 0 175 0
87 12 176 0 175 0
87 12 177 0 175 0
87 12 178 0 175 0
87 12 179 0 175 0
87 12 180 0 175 0
87 12 181 0 175 0
87 12 182 0 175 0
87 12 239 100 150 245
87 12 240 100 150 245
87 12 241 100 150 245
87 12 242 100 150 245
87 12 243 100 150 245
87 12 244 100 150 245
87 12 245 100 150 245
87 13 175 0 175 0
87 13 176 0 175 0
87 13 178 0 175 0
87 13 179 0 175 0
87 13 180 0 175 0
87 13 181 0 175 0
87 13 182 0 175 0
87 14 172 0 175 0
87 14 177 0 175 0
87 14 178 0 175 0
87 14 179 0 175 0
87 14 180 0 175 0
87 14 181 0 175 0
87 14 182 0 175 0
87 14 183 0 175 0
87 15 178 0 175 0
87 15 180 0 175 0
87 15 181 0 175 0
87 15 182 0 175 0
87 15 183 0 175 0
87 16 180 0 175 0
87 16 181 0 175 0
87 16 182 0 175 0
87 16 183 0 175 0
87 17 180 0 175 0
88 0 162 0 175 0
88 0 163 0 175 0
88 0 164 0 175 0
88 0 165 0 175 0
88 0 166 0 175 0
88 0 169 0 175 0
88 0 170 0 175 0
88 0 171 0 175 0
88 0 172 0 175 0
88 0 173 0 175 0
88 0 174 0 175 0
88 0 175 0 175 0
88 0 176 0 175 0
88 0 177 0 175 0
88 0 178 0 175 0
88 0 179 0 175 0
88 0 180 0 175 0
88 0 181 0 175 0
88 0 182 0 175 0
88 0 183 0 175 0
88 0 184 0 175 0
88 0 185 150 240 80
88 0 186 150 240 80
88 0 187 150 240 80
88 0 188 150 240 80
88 0 189 150 240 80
88 0 190 150 240 80
88 0 191 150 240 80
88 0 192 150 240 80
88 0 193 150 240 80
88 0 194 255 0 255
88 0 195 255 0 255
88 0 196 255 0 255
88 0 197 255 0 255
88 0 198 255 0 255
88 0 199 255 0 255
88 0 200 255 0 255
88 0 201 255 0 255
88 0 202 255 0 255
88 0 203 255 0 255
88 0 204 255 0 255
88 0 205 255 0 255
88 0 206 255 0 255
88 0 207 255 0 255
88 0 208 255 0 255
88 0 209 255 0 255
88 0 210 255 0 255
88 0 211 255 0 255
88 0 212 255 0 255
88 0 213 255 0 255
88 0 214 255 0 255
88 0 215 255 0 255
88 0 216 255 0 255
88 0 217 255 0 255
88 0 218 255 0 255
88 0 219 255 0 255
88 0 220 255 0 255
88 0 221 255 0 255
88 0 222 255 0 255
88 0 223 255 0 255
88 0 224 255 0 255
88 0 225 255 0 255
88 0 226 255 0 255
88 0 227 255 0 255
88 0 228 255 0 255
88 0 229 255 0 255
88 0 230 255 0 255
88 0 231 255 0 255
88 0 232 255 0 255
88 0 233 255 0 255
88 0 234 255 0 255
88 0 235 255 0 255
88 0 236 255 0 255
88 0 237 255 0 255
88 0 238 255 0 255
88 0 239 255 0 255
88 0 240 255 0 255
88 0 241 255 0 255
88 0 242 255 0 255
88 0 243 255 0 255
88 0 244 255 0 255
88 0 245 255 0 255
88 0 246 75 0 75
88 0 255 75 0 75
88 1 162 0 175 0
88 1 163 0 175 0
88 1 164 0 175 0
88 1 165 0 175 0
88 1 166 0 175 0
88 1 167 0 175 0
88 1 169 0 175 0
88 1 171 0 175 0
88 1 172 0 175 0
88 1 173 0 175 0
88 1 174 0 175 0
88 1 175 0 175 0
88 1 176 0 175 0
88 1 177 0 175 0
88 1 178 0 175 0
88 1 179 0 175 0
88 1 180 0 175 0
88 1 181 0 175 0
88 1 182 0 175 0
88 1 183 0 175 0
88 1 184 0 175 0
88 1 185 150 240 80
88 1 186 150 240 80
88 1 187 150 240 80
88 1 188 150 240 80
88 1 189 150 240 80
88 1 190 150 240 80
88 1 191 150 240 80
88 1 192 150 240 80
88 1 193 150 240 80
88 1 197 255 0 255
88 1 198 255 0 255
88 1 206 255 0 255
88 1 207 255 0 255
88 1 209 255 0 255
88 1 210 255 0 255
88 1 211 255 0 255
88 1 212 255 0 255
88 1 213 255 0 255
88 1 214 255 0 255
88 1 215 255 0 255
88 1 216 255 0 255
88 1 217 255 0 255
88 1 218 255 0 255
88 1 219 255 0 255
88 1 220 255 0 255
88 1 221 255 0 255
88 1 226 255 0 255
88 1 227 255 0 255
88 1 238 100 150 245
88 1 239 100 150 245
88 1 240 100 150 245
88 1 241 100 150 245
88 1 245 75 0 75
88 1 249 75 0 75
88 1 250 75 0 75
88 1 251 75 0 75
88 1 252 75 0 75
88 1 253 75 0 75
88 1 254 100 150 245
88 1 255 75 0 75
88 2 161 0 175 0
88 2 162 0 175 0
88 2 163 0 175 0
88 2 167 0 175 0
88 2 168 0 175 0
88 2 169 0 175 0
88 2 170 0 175 0
88 2 171 0 175 0
88 2 172 0 175 0
88 2 173 0 175 0
88 2 174 0 175 0
88 2 175 0 175 0
88 2 176 0 175 0
88 2 177 0 175 0
88 2 178 0 175 0
88 2 179 0 175 0
88 2 180 0 175 0
88 2 181 0 175 0
88 2 182 0 175 0
88 2 183 0 175 0
88 2 184 0 175 0
88 2 185 0 175 0
88 2 186 150 240 80
88 2 236 100 150 245
88 2 237 100 150 245
88 2 238 100 150 245
88 2 239 100 150 245
88 2 255 100 150 245
88 3 162 0 175 0
88 3 163 0 175 0
88 3 164 0 175 0
88 3 165 0 175 0
88 3 166 0 175 0
88 3 169 0 175 0
88 3 170 0 175 0
88 3 171 0 175 0
88 3 172 0 175 0
88 3 173 0 175 0
88 3 174 0 175 0
88 3 175 0 175 0
88 3 176 0 175 0
88 3 177 0 175 0
88 3 178 0 175 0
88 3 179 0 175 0
88 3 180 0 175 0
88 3 181 0 175 0
88 3 182 0 175 0
88 3 183 0 175 0
88 3 184 0 175 0
88 3 185 0 175 0
88 3 186 150 240 80
88 3 189 0 175 0
88 3 236 100 150 245
88 3 237 100 150 245
88 3 238 100 150 245
88 3 239 100 150 245
88 4 162 0 175 0
88 4 163 0 175 0
88 4 164 0 175 0
88 4 165 0 175 0
88 4 167 0 175 0
88 4 168 0 175 0
88 4 169 0 175 0
88 4 170 0 175 0
88 4 171 0 175 0
88 4 172 0 175 0
88 4 173 0 175 0
88 4 174 0 175 0
88 4 175 0 175 0
88 4 176 0 175 0
88 4 177 0 175 0
88 4 178 0 175 0
88 4 179 0 175 0
88 4 180 0 175 0
88 4 181 0 175 0
88 4 182 0 175 0
88 4 183 0 175 0
88 4 184 0 175 0
88 4 185 0 175 0
88 4 186 0 175 0
88 4 187 0 175 0
88 4 235 100 150 245
88 4 236 100 150 245
88 4 237 100 150 245
88 4 238 100 150 245
88 5 162 0 175 0
88 5 163 0 175 0
88 5 164 0 175 0
88 5 165 0 175 0
88 5 167 0 175 0
88 5 170 0 175 0
88 5 171 0 175 0
88 5 172 0 175 0
88 5 173 0 175 0
88 5 174 0 175 0
88 5 175 0 175 0
88 5 176 0 175 0
88 5 177 0 175 0
88 5 178 0 175 0
88 5 179 0 175 0
88 5 180 0 175 0
88 5 181 0 175 0
88 5 182 0 175 0
88 5 183 0 175 0
88 5 186 0 175 0
88 5 187 0 175 0
88 5 188 0 175 0
88 5 235 100 150 245
88 5 236 100 150 245
88 5 237 100 150 245
88 5 238 100 150 245
88 6 162 0 175 0
88 6 163 0 175 0
88 6 164 0 175 0
88 6 165 0 175 0
88 6 166 0 175 0
88 6 167 0 175 0
88 6 168 0 175 0
88 6 169 0 175 0
88 6 170 0 175 0
88 6 171 0 175 0
88 6 172 0 175 0
88 6 173 0 175 0
88 6 174 0 175 0
88 6 175 0 175 0
88 6 176 0 175 0
88 6 177 0 175 0
88 6 178 0 175 0
88 6 179 0 175 0
88 6 180 0 175 0
88 6 181 0 175 0
88 6 182 0 175 0
88 6 183 0 175 0
88 6 184 0 175 0
88 6 185 0 175 0
88 6 186 0 175 0
88 6 188 0 175 0
88 6 234 100 150 245
88 6 235 100 150 245
88 6 236 100 150 245
88 6 237 100 150 245
88 6 238 100 150 245
88 6 239 100 150 245
88 6 240 100 150 245
88 6 241 100 150 245
88 6 253 100 150 245
88 7 163 0 175 0
88 7 164 0 175 0
88 7 166 0 175 0
88 7 167 0 175 0
88 7 168 0 175 0
88 7 169 0 175 0
88 7 170 0 175 0
88 7 171 0 175 0
88 7 172 0 175 0
88 7 173 0 175 0
88 7 174 0 175 0
88 7 175 0 175 0
88 7 176 0 175 0
88 7 177 0 175 0
88 7 178 0 175 0
88 7 179 0 175 0
88 7 180 0 175 0
88 7 181 0 175 0
88 7 182 0 175 0
88 7 183 0 175 0
88 7 184 0 175 0
88 7 234 100 150 245
88 7 235 100 150 245
88 7 236 100 150 245
88 7 237 100 150 245
88 7 238 100 150 245
88 7 239 100 150 245
88 7 240 100 150 245
88 7 241 100 150 245
88 7 242 100 150 245
88 7 253 100 150 245
88 7 254 100 150 245
88 7 255 100 150 245
88 8 161 0 175 0
88 8 162 0 175 0
88 8 163 0 175 0
88 8 164 0 175 0
88 8 165 0 175 0
88 8 166 0 175 0
88 8 167 0 175 0
88 8 168 0 175 0
88 8 169 0 175 0
88 8 170 0 175 0
88 8 171 0 175 0
88 8 172 0 175 0
88 8 173 0 175 0
88 8 174 0 175 0
88 8 175 0 175 0
88 8 176 0 175 0
88 8 177 0 175 0
88 8 178 0 175 0
88 8 179 0 175 0
88 8 180 0 175 0
88 8 181 0 175 0
88 8 182 0 175 0
88 8 183 0 175 0
88 8 184 0 175 0
88 8 185 0 175 0
88 8 235 100 150 245
88 8 236 100 150 245
88 8 237 100 150 245
88 8 238 100 150 245
88 8 239 100 150 245
88 8 240 100 150 245
88 8 241 100 150 245
88 8 242 100 150 245
88 8 243 100 150 245
88 8 253 100 150 245
88 8 254 100 150 245
88 9 160 0 175 0
88 9 161 0 175 0
88 9 162 0 175 0
88 9 163 0 175 0
88 9 164 0 175 0
88 9 165 0 175 0
88 9 166 0 175 0
88 9 167 0 175 0
88 9 169 0 175 0
88 9 171 0 175 0
88 9 172 0 175 0
88 9 173 0 175 0
88 9 174 0 175 0
88 9 175 0 175 0
88 9 176 0 175 0
88 9 177 0 175 0
88 9 178 0 175 0
88 9 179 0 175 0
88 9 180 0 175 0
88 9 181 0 175 0
88 9 182 0 175 0
88 9 183 0 175 0
88 9 184 0 175 0
88 9 185 0 175 0
88 9 186 0 175 0
88 9 236 100 150 245
88 9 237 100 150 245
88 9 238 100 150 245
88 9 239 100 150 245
88 9 240 100 150 245
88 9 241 100 150 245
88 9 242 100 150 245
88 9 252 100 150 245
88 9 253 100 150 245
88 9 254 100 150 245
88 10 162 0 175 0
88 10 163 0 175 0
88 10 164 0 175 0
88 10 165 0 175 0
88 10 167 0 175 0
88 10 168 0 175 0
88 10 169 0 175 0
88 10 170 0 175 0
88 10 171 0 175 0
88 10 172 0 175 0
88 10 173 0 175 0
88 10 174 0 175 0
88 10 175 0 175 0
88 10 176 0 175 0
88 10 177 0 175 0
88 10 178 0 175 0
88 10 179 0 175 0
88 10 180 0 175 0
88 10 181 0 175 0
88 10 182 0 175 0
88 10 183 0 175 0
88 10 185 0 175 0
88 10 186 0 175 0
88 10 236 100 150 245
88 10 237 100 150 245
88 10 238 100 150 245
88 10 239 100 150 245
88 10 240 100 150 245
88 10 241 100 150 245
88 10 252 100 150 245
88 10 253 100 150 245
88 10 254 100 150 245
88 11 166 0 175 0
88 11 172 0 175 0
88 11 173 0 175 0
88 11 174 0 175 0
88 11 175 0 175 0
88 11 176 0 175 0
88 11 177 0 175 0
88 11 178 0 175 0
88 11 179 0 175 0
88 11 180 0 175 0
88 11 181 0 175 0
88 11 182 0 175 0
88 11 183 0 175 0
88 11 237 100 150 245
88 11 238 100 150 245
88 11 239 100 150 245
88 11 252 100 150 245
88 11 253 100 150 245
88 12 170 0 175 0
88 12 171 0 175 0
88 12 175 0 175 0
88 12 177 0 175 0
88 12 178 0 175 0
88 12 179 0 175 0
88 12 180 0 175 0
88 12 181 0 175 0
88 12 182 0 175 0
88 12 183 0 175 0
88 12 239 100 150 245
88 12 240 100 150 245
88 12 241 100 150 245
88 12 242 100 150 245
88 12 243 100 150 245
88 12 244 100 150 245
88 13 176 0 175 0
88 13 178 0 175 0
88 13 179 0 175 0
88 13 180 0 175 0
88 13 181 0 175 0
88 13 182 0 175 0
88 13 183 0 175 0
88 14 171 0 175 0
88 14 172 0 175 0
88 14 177 0 175 0
88 14 178 0 175 0
88 14 179 0 175 0
88 14 180 0 175 0
88 14 181 0 175 0
88 14 182 0 175 0
88 14 183 0 175 0
88 14 186 0 175 0
88 15 180 0 175 0
88 15 181 0 175 0
88 15 182 0 175 0
88 15 183 0 175 0
88 16 180 0 175 0
88 16 181 0 175 0
88 16 182 0 175 0
88 16 183 0 175 0
88 16 184 0 175 0
88 19 175 0 175 0
89 0 164 0 175 0
89 0 165 0 175 0
89 0 169 0 175 0
89 0 172 0 175 0
89 0 173 0 175 0
89 0 174 0 175 0
89 0 175 0 175 0
89 0 176 0 175 0
89 0 177 0 175 0
89 0 178 0 175 0
89 0 179 0 175 0
89 0 180 0 175 0
89 0 181 0 175 0
89 0 182 0 175 0
89 0 183 0 175 0
89 0 184 0 175 0
89 0 185 150 240 80
89 0 186 150 240 80
89 0 187 150 240 80
89 0 188 150 240 80
89 0 189 150 240 80
89 0 190 150 240 80
89 0 191 150 240 80
89 0 192 150 240 80
89 0 193 150 240 80
89 0 194 150 240 80
89 0 195 255 0 255
89 0 196 255 0 255
89 0 197 255 0 255
89 0 198 255 0 255
89 0 199 255 0 255
89 0 200 255 0 255
89 0 201 255 0 255
89 0 202 255 0 255
89 0 203 255 0 255
89 0 204 255 0 255
89 0 205 255 0 255
89 0 206 255 0 255
89 0 207 255 0 255
89 0 208 255 0 255
89 0 209 255 0 255
89 0 210 255 0 255
89 0 211 255 0 255
89 0 212 255 0 255
89 0 213 255 0 255
89 0 214 255 0 255
89 0 215 255 0 255
89 0 216 255 0 255
89 0 217 255 0 255
89 0 218 255 0 255
89 0 219 255 0 255
89 0 220 255 0 255
89 0 221 255 0 255
89 0 222 255 0 255
89 0 223 255 0 255
89 0 224 255 0 255
89 0 225 255 0 255
89 0 226 255 0 255
89 0 227 255 0 255
89 0 228 255 0 255
89 0 229 255 0 255
89 0 230 255 0 255
89 0 231 255 0 255
89 0 232 255 0 255
89 0 233 255 0 255
89 0 234 255 0 255
89 0 235 255 0 255
89 0 236 255 0 255
89 0 237 255 0 255
89 0 238 255 0 255
89 0 239 255 0 255
89 0 240 255 0 255
89 0 241 255 0 255
89 0 242 255 0 255
89 0 243 255 0 255
89 0 244 255 0 255
89 0 245 255 0 255
89 0 246 255 0 255
89 0 247 255 0 255
89 0 248 255 0 255
89 1 163 0 175 0
89 1 164 0 175 0
89 1 165 0 175 0
89 1 166 0 175 0
89 1 171 0 175 0
89 1 172 0 175 0
89 1 173 0 175 0
89 1 174 0 175 0
89 1 175 0 175 0
89 1 176 0 175 0
89 1 177 0 175 0
89 1 178 0 175 0
89 1 179 0 175 0
89 1 180 0 175 0
89 1 181 0 175 0
89 1 182 0 175 0
89 1 183 0 175 0
89 1 184 0 175 0
89 1 185 150 240 80
89 1 186 150 240 80
89 1 187 150 240 80
89 1 188 150 240 80
89 1 189 150 240 80
89 1 190 150 240 80
89 1 191 150 240 80
89 1 192 150 240 80
89 1 193 150 240 80
89 1 194 150 240 80
89 1 196 150 240 80
89 1 197 255 0 255
89 1 205 255 0 255
89 1 208 255 0 255
89 1 209 255 0 255
89 1 210 255 0 255
89 1 211 255 0 255
89 1 212 255 0 255
89 1 213 255 0 255
89 1 214 255 0 255
89 1 215 255 0 255
89 1 216 255 0 255
89 1 217 255 0 255
89 1 219 255 0 255
89 1 220 255 0 255
89 1 221 255 0 255
89 1 225 255 0 255
89 1 226 255 0 255
89 1 238 255 0 255
89 1 239 100 150 245
89 1 240 100 150 245
89 1 241 100 150 245
89 1 242 255 0 255
89 1 243 100 150 245
89 1 246 75 0 75
89 1 247 75 0 75
89 1 248 75 0 75
89 1 249 75 0 75
89 1 250 75 0 75
89 1 251 75 0 75
89 1 252 75 0 75
89 1 253 75 0 75
89 1 254 100 150 245
89 1 255 100 150 245
89 2 162 0 175 0
89 2 163 0 175 0
89 2 164 0 175 0
89 2 165 0 175 0
89 2 166 0 175 0
89 2 168 0 175 0
89 2 171 0 175 0
89 2 172 0 175 0
89 2 173 0 175 0
89 2 174 0 175 0
89 2 175 0 175 0
89 2 176 0 175 0
89 2 177 0 175 0
89 2 178 0 175 0
89 2 179 0 175 0
89 2 180 0 175 0
89 2 181 0 175 0
89 2 182 0 175 0
89 2 183 0 175 0
89 2 184 0 175 0
89 2 185 0 175 0
89 2 186 150 240 80
89 2 187 0 175 0
89 2 238 100 150 245
89 2 239 100 150 245
89 2 240 100 150 245
89 2 255 100 150 245
89 3 164 0 175 0
89 3 165 0 175 0
89 3 166 0 175 0
89 3 170 0 175 0
89 3 171 0 175 0
89 3 172 0 175 0
89 3 173 0 175 0
89 3 174 0 175 0
89 3 175 0 175 0
89 3 176 0 175 0
89 3 177 0 175 0
89 3 178 0 175 0
89 3 179 0 175 0
89 3 180 0 175 0
89 3 181 0 175 0
89 3 182 0 175 0
89 3 183 0 175 0
89 3 184 0 175 0
89 3 185 0 175 0
89 3 186 0 175 0
89 3 237 100 150 245
89 3 238 100 150 245
89 3 239 100 150 245
89 3 240 100 150 245
89 4 163 0 175 0
89 4 164 0 175 0
89 4 166 0 175 0
89 4 167 0 175 0
89 4 169 0 175 0
89 4 170 0 175 0
89 4 171 0 175 0
89 4 172 0 175 0
89 4 173 0 175 0
89 4 174 0 175 0
89 4 175 0 175 0
89 4 176 0 175 0
89 4 177 0 175 0
89 4 178 0 175 0
89 4 179 0 175 0
89 4 180 0 175 0
89 4 181 0 175 0
89 4 182 0 175 0
89 4 183 0 175 0
89 4 184 0 175 0
89 4 185 0 175 0
89 4 186 0 175 0
89 4 187 0 175 0
89 4 237 100 150 245
89 4 238 100 150 245
89 4 239 100 150 245
89 4 240 100 150 245
89 5 163 0 175 0
89 5 164 0 175 0
89 5 165 0 175 0
89 5 167 0 175 0
89 5 168 0 175 0
89 5 169 0 175 0
89 5 170 0 175 0
89 5 171 0 175 0
89 5 172 0 175 0
89 5 173 0 175 0
89 5 174 0 175 0
89 5 175 0 175 0
89 5 176 0 175 0
89 5 177 0 175 0
89 5 178 0 175 0
89 5 179 0 175 0
89 5 180 0 175 0
89 5 181 0 175 0
89 5 182 0 175 0
89 5 183 0 175 0
89 5 184 0 175 0
89 5 185 0 175 0
89 5 186 0 175 0
89 5 187 0 175 0
89 5 188 0 175 0
89 5 189 0 175 0
89 5 237 100 150 245
89 5 238 100 150 245
89 5 239 100 150 245
89 5 240 100 150 245
89 6 163 0 175 0
89 6 164 0 175 0
89 6 165 0 175 0
89 6 166 0 175 0
89 6 167 0 175 0
89 6 169 0 175 0
89 6 170 0 175 0
89 6 171 0 175 0
89 6 173 0 175 0
89 6 174 0 175 0
89 6 175 0 175 0
89 6 176 0 175 0
89 6 177 0 175 0
89 6 178 0 175 0
89 6 179 0 175 0
89 6 180 0 175 0
89 6 181 0 175 0
89 6 182 0 175 0
89 6 183 0 175 0
89 6 184 0 175 0
89 6 185 0 175 0
89 6 186 0 175 0
89 6 187 0 175 0
89 6 188 0 175 0
89 6 189 0 175 0
89 6 237 100 150 245
89 6 238 100 150 245
89 6 239 100 150 245
89 6 240 100 150 245
89 6 241 100 150 245
89 7 163 0 175 0
89 7 164 0 175 0
89 7 165 0 175 0
89 7 166 0 175 0
89 7 167 0 175 0
89 7 168 0 175 0
89 7 169 0 175 0
89 7 170 0 175 0
89 7 173 0 175 0
89 7 174 0 175 0
89 7 175 0 175 0
89 7 176 0 175 0
89 7 177 0 175 0
89 7 178 0 175 0
89 7 179 0 175 0
89 7 180 0 175 0
89 7 181 0 175 0
89 7 182 0 175 0
89 7 183 0 175 0
89 7 184 0 175 0
89 7 185 0 175 0
89 7 186 0 175 0
89 7 187 0 175 0
89 7 236 100 150 245
89 7 237 100 150 245
89 7 238 100 150 245
89 7 239 100 150 245
89 7 240 100 150 245
89 7 241 100 150 245
89 7 254 100 150 245
89 7 255 100 150 245
89 8 163 0 175 0
89 8 164 0 175 0
89 8 165 0 175 0
89 8 166 0 175 0
89 8 167 0 175 0
89 8 168 0 175 0
89 8 169 0 175 0
89 8 170 0 175 0
89 8 171 0 175 0
89 8 172 0 175 0
89 8 173 0 175 0
89 8 175 0 175 0
89 8 176 0 175 0
89 8 177 0 175 0
89 8 178 0 175 0
89 8 179 0 175 0
89 8 180 0 175 0
89 8 181 0 175 0
89 8 182 0 175 0
89 8 183 0 175 0
89 8 184 0 175 0
89 8 185 0 175 0
89 8 187 0 175 0
89 8 236 100 150 245
89 8 237 100 150 245
89 8 238 100 150 245
89 8 239 100 150 245
89 8 240 100 150 245
89 8 241 100 150 245
89 8 242 100 150 245
89 8 254 100 150 245
89 8 255 100 150 245
89 9 163 0 175 0
89 9 164 0 175 0
89 9 165 0 175 0
89 9 166 0 175 0
89 9 172 0 175 0
89 9 173 0 175 0
89 9 174 0 175 0
89 9 175 0 175 0
89 9 176 0 175 0
89 9 177 0 175 0
89 9 178 0 175 0
89 9 179 0 175 0
89 9 180 0 175 0
89 9 181 0 175 0
89 9 182 0 175 0
89 9 183 0 175 0
89 9 184 0 175 0
89 9 185 0 175 0
89 9 186 0 175 0
89 9 187 0 175 0
89 9 238 100 150 245
89 9 239 100 150 245
89 9 240 100 150 245
89 9 241 100 150 245
89 9 254 100 150 245
89 9 255 100 150 245
89 10 162 0 175 0
89 10 163 0 175 0
89 10 164 0 175 0
89 10 165 0 175 0
89 10 166 0 175 0
89 10 167 0 175 0
89 10 168 0 175 0
89 10 169 0 175 0
89 10 170 0 175 0
89 10 171 0 175 0
89 10 172 0 175 0
89 10 173 0 175 0
89 10 174 0 175 0
89 10 175 0 175 0
89 10 176 0 175 0
89 10 177 0 175 0
89 10 178 0 175 0
89 10 179 0 175 0
89 10 180 0 175 0
89 10 181 0 175 0
89 10 182 0 175 0
89 10 183 0 175 0
89 10 187 0 175 0
89 10 237 100 150 245
89 10 238 100 150 245
89 10 239 100 150 245
89 10 240 100 150 245
89 10 241 100 150 245
89 10 253 100 150 245
89 10 254 100 150 245
89 10 255 100 150 245
89 11 170 0 175 0
89 11 171 0 175 0
89 11 172 0 175 0
89 11 177 0 175 0
89 11 178 0 175 0
89 11 179 0 175 0
89 11 180 0 175 0
89 11 181 0 175 0
89 11 182 0 175 0
89 11 183 0 175 0
89 11 238 100 150 245
89 11 239 100 150 245
89 11 240 100 150 245
89 11 253 100 150 245
89 11 254 100 150 245
89 11 255 100 150 245
89 12 178 0 175 0
89 12 179 0 175 0
89 12 180 0 175 0
89 12 181 0 175 0
89 12 182 0 175 0
89 12 183 0 175 0
89 12 239 100 150 245
89 12 240 100 150 245
89 12 241 100 150 245
89 12 242 100 150 245
89 12 243 100 150 245
89 12 244 100 150 245
89 13 179 0 175 0
89 13 180 0 175 0
89 13 181 0 175 0
89 13 182 0 175 0
89 13 183 0 175 0
89 13 184 0 175 0
89 14 172 0 175 0
89 14 178 0 175 0
89 14 179 0 175 0
89 14 180 0 175 0
89 14 181 0 175 0
89 14 182 0 175 0
89 14 183 0 175 0
89 14 185 0 175 0
89 14 187 0 175 0
89 15 180 0 175 0
89 15 181 0 175 0
89 15 182 0 175 0
89 15 183 0 175 0
89 15 184 0 175 0
89 15 185 0 175 0
89 16 180 0 175 0
89 16 181 0 175 0
89 19 175 0 175 0
90 0 164 0 175 0
90 0 165 0 175 0
90 0 172 0 175 0
90 0 173 0 175 0
90 0 174 0 175 0
90 0 175 0 175 0
90 0 176 0 175 0
90 0 177 0 175 0
90 0 178 0 175 0
90 0 179 0 175 0
90 0 180 0 175 0
90 0 181 0 175 0
90 0 182 0 175 0
90 0 183 0 175 0
90 0 184 0 175 0
90 0 185 150 240 80
90 0 186 0 175 0
90 0 187 0 175 0
90 0 188 150 240 80
90 0 189 150 240 80
90 0 190 150 240 80
90 0 191 150 240 80
90 0 192 150 240 80
90 0 193 150 240 80
90 0 194 150 240 80
90 0 195 150 240 80
90 0 196 150 240 80
90 0 197 255 0 255
90 0 198 255 0 255
90 0 199 255 0 255
90 0 200 255 0 255
90 0 201 255 0 255
90 0 202 255 0 255
90 0 203 255 0 255
90 0 204 255 0 255
90 0 205 255 0 255
90 0 206 255 0 255
90 0 207 255 0 255
90 0 208 255 0 255
90 0 209 255 0 255
90 0 210 255 0 255
90 0 211 255 0 255
90 0 212 255 0 255
90 0 213 255 0 255
90 0 214 255 0 255
90 0 215 255 0 255
90 0 216 255 0 255
90 0 217 255 0 255
90 0 218 255 0 255
90 0 219 255 0 255
90 0 220 255 0 255
90 0 221 255 0 255
90 0 222 255 0 255
90 0 223 255 0 255
90 0 224 255 0 255
90 0 225 255 0 255
90 0 226 255 0 255
90 0 227 255 0 255
90 0 228 255 0 255
90 0 229 255 0 255
90 0 230 255 0 255
90 0 231 255 0 255
90 0 232 255 0 255
90 0 233 255 0 255
90 0 234 255 0 255
90 0 235 255 0 255
90 0 236 255 0 255
90 0 237 255 0 255
90 0 238 255 0 255
90 0 239 255 0 255
90 0 240 255 0 255
90 0 241 255 0 255
90 0 242 255 0 255
90 0 243 255 0 255
90 0 244 255 0 255
90 0 245 255 0 255
90 0 246 255 0 255
90 0 247 255 0 255
90 0 248 255 0 255
90 0 249 255 0 255
90 0 250 75 0 75
90 0 251 75 0 75
90 1 165 0 175 0
90 1 166 0 175 0
90 1 167 0 175 0
90 1 169 0 175 0
90 1 172 0 175 0
90 1 173 0 175 0
90 1 174 0 175 0
90 1 175 0 175 0
90 1 176 0 175 0
90 1 177 0 175 0
90 1 178 0 175 0
90 1 179 0 175 0
90 1 180 0 175 0
90 1 181 0 175 0
90 1 182 0 175 0
90 1 183 0 175 0
90 1 184 0 175 0
90 1 185 150 240 80
90 1 186 150 240 80
90 1 187 150 240 80
90 1 188 150 240 80
90 1 189 150 240 80
90 1 190 150 240 80
90 1 191 150 240 80
90 1 192 150 240 80
90 1 193 150 240 80
90 1 194 150 240 80
90 1 195 150 240 80
90 1 196 150 240 80
90 1 197 150 240 80
90 1 204 255 0 255
90 1 209 255 0 255
90 1 210 255 0 255
90 1 211 255 0 255
90 1 212 255 0 255
90 1 213 255 0 255
90 1 214 255 0 255
90 1 216 255 0 255
90 1 224 255 0 255
90 1 225 255 0 255
90 1 226 255 0 255
90 1 241 100 150 245
90 1 242 100 150 245
90 1 243 100 150 245
90 1 245 100 150 245
90 1 248 75 0 75
90 1 249 75 0 75
90 1 250 75 0 75
90 1 251 75 0 75
90 1 252 75 0 75
90 1 253 75 0 75
90 1 254 75 0 75
90 1 255 100 150 245
90 2 164 0 175 0
90 2 165 0 175 0
90 2 166 0 175 0
90 2 167 0 175 0
90 2 169 0 175 0
90 2 170 0 175 0
90 2 171 0 175 0
90 2 172 0 175 0
90 2 173 0 175 0
90 2 174 0 175 0
90 2 175 0 175 0
90 2 176 0 175 0
90 2 177 0 175 0
90 2 178 0 175 0
90 2 179 0 175 0
90 2 180 0 175 0
90 2 181 0 175 0
90 2 182 0 175 0
90 2 183 0 175 0
90 2 184 0 175 0
90 2 185 0 175 0
90 2 186 0 175 0
90 2 187 0 175 0
90 2 188 150 240 80
90 2 239 100 150 245
90 2 240 100 150 245
90 2 241 100 150 245
90 2 242 100 150 245
90 2 243 100 150 245
90 2 254 100 150 245
90 2 255 100 150 245
90 3 165 0 175 0
90 3 166 0 175 0
90 3 170 0 175 0
90 3 172 0 175 0
90 3 173 0 175 0
90 3 174 0 175 0
90 3 175 0 175 0
90 3 176 0 175 0
90 3 177 0 175 0
90 3 178 0 175 0
90 3 179 0 175 0
90 3 180 0 175 0
90 3 181 0 175 0
90 3 182 0 175 0
90 3 183 0 175 0
90 3 184 0 175 0
90 3 185 0 175 0
90 3 186 0 175 0
90 3 187 0 175 0
90 3 239 100 150 245
90 3 240 100 150 245
90 3 241 100 150 245
90 4 165 0 175 0
90 4 166 0 175 0
90 4 167 0 175 0
90 4 168 0 175 0
90 4 170 0 175 0
90 4 171 0 175 0
90 4 172 0 175 0
90 4 174 0 175 0
90 4 175 0 175 0
90 4 176 0 175 0
90 4 177 0 175 0
90 4 178 0 175 0
90 4 179 0 175 0
90 4 180 0 175 0
90 4 181 0 175 0
90 4 182 0 175 0
90 4 183 0 175 0
90 4 184 0 175 0
90 4 185 0 175 0
90 4 186 0 175 0
90 4 187 0 175 0
90 4 188 0 175 0
90 4 239 100 150 245
90 4 240 100 150 245
90 4 241 100 150 245
90 5 164 0 175 0
90 5 165 0 175 0
90 5 166 0 175 0
90 5 167 0 175 0
90 5 173 0 175 0
90 5 174 0 175 0
90 5 175 0 175 0
90 5 176 0 175 0
90 5 177 0 175 0
90 5 178 0 175 0
90 5 179 0 175 0
90 5 180 0 175 0
90 5 181 0 175 0
90 5 182 0 175 0
90 5 183 0 175 0
90 5 184 0 175 0
90 5 185 0 175 0
90 5 186 0 175 0
90 5 187 0 175 0
90 5 188 0 175 0
90 5 189 0 175 0
90 5 239 100 150 245
90 5 240 100 150 245
90 5 241 100 150 245
90 6 164 0 175 0
90 6 165 0 175 0
90 6 166 0 175 0
90 6 167 0 175 0
90 6 168 0 175 0
90 6 169 0 175 0
90 6 171 0 175 0
90 6 174 0 175 0
90 6 175 0 175 0
90 6 176 0 175 0
90 6 177 0 175 0
90 6 178 0 175 0
90 6 179 0 175 0
90 6 180 0 175 0
90 6 181 0 175 0
90 6 182 0 175 0
90 6 183 0 175 0
90 6 184 0 175 0
90 6 185 0 175 0
90 6 186 0 175 0
90 6 187 0 175 0
90 6 188 0 175 0
90 6 189 0 175 0
90 6 238 100 150 245
90 6 239 100 150 245
90 6 240 100 150 245
90 6 241 100 150 245
90 7 165 0 175 0
90 7 166 0 175 0
90 7 167 0 175 0
90 7 168 0 175 0
90 7 169 0 175 0
90 7 174 0 175 0
90 7 175 0 175 0
90 7 176 0 175 0
90 7 177 0 175 0
90 7 178 0 175 0
90 7 179 0 175 0
90 7 180 0 175 0
90 7 181 0 175 0
90 7 182 0 175 0
90 7 183 0 175 0
90 7 184 0 175 0
90 7 185 0 175 0
90 7 186 0 175 0
90 7 187 0 175 0
90 7 188 0 175 0
90 7 238 100 150 245
90 7 239 100 150 245
90 7 240 100 150 245
90 7 241 100 150 245
90 7 255 100 150 245
90 8 164 0 175 0
90 8 165 0 175 0
90 8 166 0 175 0
90 8 167 0 175 0
90 8 168 0 175 0
90 8 169 0 175 0
90 8 170 0 175 0
90 8 171 0 175 0
90 8 175 0 175 0
90 8 176 0 175 0
90 8 177 0 175 0
90 8 178 0 175 0
90 8 179 0 175 0
90 8 180 0 175 0
90 8 181 0 175 0
90 8 182 0 175 0
90 8 183 0 175 0
90 8 184 0 175 0
90 8 185 0 175 0
90 8 186 0 175 0
90 8 187 0 175 0
90 8 188 0 175 0
90 8 238 100 150 245
90 8 239 100 150 245
90 8 240 100 150 245
90 8 241 100 150 245
90 8 255 100 150 245
90 9 164 0 175 0
90 9 165 0 175 0
90 9 166 0 175 0
90 9 167 0 175 0
90 9 168 0 175 0
90 9 172 0 175 0
90 9 173 0 175 0
90 9 176 0 175 0
90 9 177 0 175 0
90 9 178 0 175 0
90 9 179 0 175 0
90 9 180 0 175 0
90 9 181 0 175 0
90 9 182 0 175 0
90 9 183 0 175 0
90 9 184 0 175 0
90 9 185 0 175 0
90 9 186 0 175 0
90 9 187 0 175 0
90 9 188 0 175 0
90 9 238 100 150 245
90 9 239 100 150 245
90 9 240 100 150 245
90 9 241 100 150 245
90 9 255 100 150 245
90 10 165 0 175 0
90 10 166 0 175 0
90 10 167 0 175 0
90 10 168 0 175 0
90 10 169 0 175 0
90 10 170 0 175 0
90 10 171 0 175 0
90 10 172 0 175 0
90 10 173 0 175 0
90 10 174 0 175 0
90 10 175 0 175 0
90 10 176 0 175 0
90 10 177 0 175 0
90 10 178 0 175 0
90 10 179 0 175 0
90 10 180 0 175 0
90 10 181 0 175 0
90 10 182 0 175 0
90 10 183 0 175 0
90 10 185 0 175 0
90 10 238 100 150 245
90 10 239 100 150 245
90 10 240 100 150 245
90 10 241 100 150 245
90 10 254 100 150 245
90 10 255 100 150 245
90 11 170 0 175 0
90 11 172 0 175 0
90 11 174 0 175 0
90 11 176 0 175 0
90 11 177 0 175 0
90 11 178 0 175 0
90 11 179 0 175 0
90 11 180 0 175 0
90 11 181 0 175 0
90 11 182 0 175 0
90 11 183 0 175 0
90 11 184 0 175 0
90 11 185 0 175 0
90 11 239 100 150 245
90 11 240 100 150 245
90 11 241 100 150 245
90 11 242 100 150 245
90 11 254 100 150 245
90 11 255 100 150 245
90 12 178 0 175 0
90 12 180 0 175 0
90 12 181 0 175 0
90 12 182 0 175 0
90 12 183 0 175 0
90 12 184 0 175 0
90 12 185 0 175 0
90 12 240 100 150 245
90 12 241 100 150 245
90 12 242 100 150 245
90 13 177 0 175 0
90 13 179 0 175 0
90 13 180 0 175 0
90 13 181 0 175 0
90 13 182 0 175 0
90 13 183 0 175 0
90 13 184 0 175 0
90 13 185 0 175 0
90 14 177 0 175 0
90 14 179 0 175 0
90 14 180 0 175 0
90 14 181 0 175 0
90 14 182 0 175 0
90 14 183 0 175 0
90 14 184 0 175 0
90 14 185 0 175 0
90 14 186 0 175 0
90 14 187 0 175 0
90 15 181 0 175 0
90 15 182 0 175 0
90 15 185 0 175 0
90 15 186 0 175 0
90 16 180 0 175 0
90 16 181 0 175 0
90 16 182 0 175 0
90 16 183 0 175 0
90 16 185 0 175 0
90 17 180 0 175 0
91 0 166 0 175 0
91 0 167 0 175 0
91 0 170 0 175 0
91 0 171 0 175 0
91 0 172 0 175 0
91 0 173 0 175 0
91 0 174 0 175 0
91 0 175 0 175 0
91 0 177 0 175 0
91 0 178 0 175 0
91 0 179 0 175 0
91 0 180 0 175 0
91 0 181 0 175 0
91 0 182 0 175 0
91 0 183 0 175 0
91 0 184 0 175 0
91 0 185 0 175 0
91 0 186 0 175 0
91 0 187 0 175 0
91 0 188 150 240 80
91 0 189 150 240 80
91 0 190 150 240 80
91 0 191 150 240 80
91 0 192 150 240 80
91 0 193 150 240 80
91 0 194 150 240 80
91 0 195 150 240 80
91 0 196 150 240 80
91 0 197 150 240 80
91 0 198 255 0 255
91 0 199 255 0 255
91 0 200 255 0 255
91 0 201 255 0 255
91 0 202 255 0 255
91 0 203 255 0 255
91 0 204 255 0 255
91 0 205 255 0 255
91 0 206 255 0 255
91 0 207 255 0 255
91 0 208 255 0 255
91 0 209 255 0 255
91 0 210 255 0 255
91 0 211 255 0 255
91 0 212 255 0 255
91 0 213 255 0 255
91 0 214 255 0 255
91 0 215 255 0 255
91 0 216 255 0 255
91 0 217 255 0 255
91 0 218 255 0 255
91 0 219 255 0 255
91 0 220 255 0 255
91 0 221 255 0 255
91 0 222 255 0 255
91 0 223 255 0 255
91 0 224 255 0 255
91 0 225 255 0 255
91 0 226 255 0 255
91 0 227 255 0 255
91 0 228 255 0 255
91 0 229 255 0 255
91 0 230 255 0 255
91 0 231 255 0 255
91 0 232 255 0 255
91 0 233 255 0 255
91 0 234 255 0 255
91 0 235 255 0 255
91 0 236 255 0 255
91 0 237 255 0 255
91 0 238 255 0 255
91 0 239 255 0 255
91 0 240 255 0 255
91 0 241 255 0 255
91 0 242 255 0 255
91 0 243 255 0 255
91 0 244 255 0 255
91 0 245 255 0 255
91 0 246 255 0 255
91 0 247 255 0 255
91 0 248 255 0 255
91 0 249 255 0 255
91 0 250 255 0 255
91 0 251 75 0 75
91 1 165 0 175 0
91 1 166 0 175 0
91 1 167 0 175 0
91 1 169 0 175 0
91 1 170 0 175 0
91 1 171 0 175 0
91 1 172 0 175 0
91 1 173 0 175 0
91 1 174 0 175 0
91 1 175 0 175 0
91 1 176 0 175 0
91 1 177 0 175 0
91 1 178 0 175 0
91 1 179 0 175 0
91 1 180 0 175 0
91 1 181 0 175 0
91 1 182 0 175 0
91 1 183 0 175 0
91 1 184 0 175 0
91 1 185 0 175 0
91 1 186 0 175 0
91 1 187 0 175 0
91 1 188 150 240 80
91 1 189 150 240 80
91 1 190 150 240 80
91 1 191 150 240 80
91 1 192 150 240 80
91 1 193 150 240 80
91 1 194 150 240 80
91 1 195 150 240 80
91 1 196 150 240 80
91 1 197 150 240 80
91 1 198 150 240 80
91 1 208 255 0 255
91 1 209 255 0 255
91 1 211 255 0 255
91 1 212 255 0 255
91 1 213 255 0 255
91 1 215 255 0 255
91 1 216 255 0 255
91 1 217 255 0 255
91 1 218 255 0 255
91 1 224 255 0 255
91 1 225 255 0 255
91 1 227 255 0 255
91 1 228 255 0 255
91 1 234 255 0 255
91 1 242 100 150 245
91 1 243 100 150 245
91 1 244 100 150 245
91 1 246 255 0 255
91 1 250 75 0 75
91 1 251 75 0 75
91 1 252 75 0 75
91 1 253 75 0 75
91 1 254 75 0 75
91 1 255 75 0 75
91 2 165 0 175 0
91 2 166 0 175 0
91 2 167 0 175 0
91 2 168 0 175 0
91 2 172 0 175 0
91 2 173 0 175 0
91 2 174 0 175 0
91 2 175 0 175 0
91 2 176 0 175 0
91 2 177 0 175 0
91 2 178 0 175 0
91 2 179 0 175 0
91 2 180 0 175 0
91 2 181 0 175 0
91 2 182 0 175 0
91 2 183 0 175 0
91 2 184 0 175 0
91 2 185 0 175 0
91 2 186 0 175 0
91 2 187 0 175 0
91 2 188 0 175 0
91 2 196 150 240 80
91 2 241 100 150 245
91 2 242 100 150 245
91 2 243 100 150 245
91 2 244 100 150 245
91 2 253 100 150 245
91 2 254 100 150 245
91 2 255 100 150 245
91 3 165 0 175 0
91 3 166 0 175 0
91 3 167 0 175 0
91 3 169 0 175 0
91 3 172 0 175 0
91 3 174 0 175 0
91 3 175 0 175 0
91 3 176 0 175 0
91 3 177 0 175 0
91 3 178 0 175 0
91 3 179 0 175 0
91 3 180 0 175 0
91 3 181 0 175 0
91 3 182 0 175 0
91 3 183 0 175 0
91 3 184 0 175 0
91 3 185 0 175 0
91 3 186 0 175 0
91 3 187 0 175 0
91 3 188 0 175 0
91 3 189 150 240 80
91 3 240 100 150 245
91 3 241 100 150 245
91 3 242 100 150 245
91 3 243 100 150 245
91 4 166 0 175 0
91 4 167 0 175 0
91 4 168 0 175 0
91 4 169 0 175 0
91 4 171 0 175 0
91 4 172 0 175 0
91 4 175 0 175 0
91 4 176 0 175 0
91 4 177 0 175 0
91 4 178 0 175 0
91 4 179 0 175 0
91 4 180 0 175 0
91 4 181 0 175 0
91 4 182 0 175 0
91 4 183 0 175 0
91 4 184 0 175 0
91 4 185 0 175 0
91 4 186 0 175 0
91 4 187 0 175 0
91 4 188 0 175 0
91 4 240 100 150 245
91 4 241 100 150 245
91 4 242 100 150 245
91 4 243 100 150 245
91 5 165 0 175 0
91 5 166 0 175 0
91 5 167 0 175 0
91 5 169 0 175 0
91 5 171 0 175 0
91 5 172 0 175 0
91 5 173 0 175 0
91 5 174 0 175 0
91 5 175 0 175 0
91 5 176 0 175 0
91 5 177 0 175 0
91 5 178 0 175 0
91 5 179 0 175 0
91 5 180 0 175 0
91 5 181 0 175 0
91 5 182 0 175 0
91 5 183 0 175 0
91 5 184 0 175 0
91 5 185 0 175 0
91 5 186 0 175 0
91 5 187 0 175 0
91 5 188 0 175 0
91 5 189 0 175 0
91 5 240 100 150 245
91 5 241 100 150 245
91 5 242 100 150 245
91 5 243 100 150 245
91 6 165 0 175 0
91 6 166 0 175 0
91 6 167 0 175 0
91 6 168 0 175 0
91 6 174 0 175 0
91 6 175 0 175 0
91 6 176 0 175 0
91 6 177 0 175 0
91 6 178 0 175 0
91 6 179 0 175 0
91 6 180 0 175 0
91 6 181 0 175 0
91 6 182 0 175 0
91 6 183 0 175 0
91 6 184 0 175 0
91 6 185 0 175 0
91 6 186 0 175 0
91 6 187 0 175 0
91 6 188 0 175 0
91 6 189 0 175 0
91 6 190 0 175 0
91 6 239 100 150 245
91 6 240 100 150 245
91 6 241 100 150 245
91 6 242 100 150 245
91 6 243 100 150 245
91 7 166 0 175 0
91 7 167 0 175 0
91 7 168 0 175 0
91 7 174 0 175 0
91 7 177 0 175 0
91 7 178 0 175 0
91 7 179 0 175 0
91 7 180 0 175 0
91 7 181 0 175 0
91 7 182 0 175 0
91 7 183 0 175 0
91 7 184 0 175 0
91 7 185 0 175 0
91 7 186 0 175 0
91 7 187 0 175 0
91 7 188 0 175 0
91 7 240 100 150 245
91 7 241 100 150 245
91 7 242 100 150 245
91 7 243 100 150 245
91 8 166 0 175 0
91 8 167 0 175 0
91 8 168 0 175 0
91 8 169 0 175 0
91 8 170 0 175 0
91 8 171 0 175 0
91 8 174 0 175 0
91 8 175 0 175 0
91 8 176 0 175 0
91 8 177 0 175 0
91 8 178 0 175 0
91 8 179 0 175 0
91 8 180 0 175 0
91 8 181 0 175 0
91 8 182 0 175 0
91 8 183 0 175 0
91 8 184 0 175 0
91 8 185 0 175 0
91 8 186 0 175 0
91 8 187 0 175 0
91 8 188 0 175 0
91 8 240 100 150 245
91 8 241 100 150 245
91 8 242 100 150 245
91 8 243 100 150 245
91 9 165 0 175 0
91 9 166 0 175 0
91 9 167 0 175 0
91 9 168 0 175 0
91 9 176 0 175 0
91 9 177 0 175 0
91 9 178 0 175 0
91 9 179 0 175 0
91 9 180 0 175 0
91 9 181 0 175 0
91 9 182 0 175 0
91 9 183 0 175 0
91 9 184 0 175 0
91 9 185 0 175 0
91 9 186 0 175 0
91 9 187 0 175 0
91 9 188 0 175 0
91 9 189 0 175 0
91 9 240 100 150 245
91 9 241 100 150 245
91 9 242 100 150 245
91 9 243 100 150 245
91 10 165 0 175 0
91 10 166 0 175 0
91 10 167 0 175 0
91 10 171 0 175 0
91 10 172 0 175 0
91 10 173 0 175 0
91 10 174 0 175 0
91 10 175 0 175 0
91 10 176 0 175 0
91 10 177 0 175 0
91 10 178 0 175 0
91 10 179 0 175 0
91 10 180 0 175 0
91 10 181 0 175 0
91 10 182 0 175 0
91 10 183 0 175 0
91 10 184 0 175 0
91 10 186 0 175 0
91 10 187 0 175 0
91 10 188 0 175 0
91 10 189 0 175 0
91 10 240 100 150 245
91 10 241 100 150 245
91 10 242 100 150 245
91 10 243 100 150 245
91 11 167 0 175 0
91 11 173 0 175 0
91 11 174 0 175 0
91 11 175 0 175 0
91 11 177 0 175 0
91 11 178 0 175 0
91 11 179 0 175 0
91 11 180 0 175 0
91 11 181 0 175 0
91 11 182 0 175 0
91 11 183 0 175 0
91 11 184 0 175 0
91 11 185 0 175 0
91 11 186 0 175 0
91 11 187 0 175 0
91 11 188 0 175 0
91 11 240 100 150 245
91 11 241 100 150 245
91 11 242 100 150 245
91 11 243 100 150 245
91 11 255 100 150 245
91 12 181 0 175 0
91 12 182 0 175 0
91 12 183 0 175 0
91 12 184 0 175 0
91 12 185 0 175 0
91 12 186 0 175 0
91 12 187 0 175 0
91 12 188 0 175 0
91 12 241 100 150 245
91 12 242 100 150 245
91 12 243 100 150 245
91 12 244 100 150 245
91 13 180 0 175 0
91 13 181 0 175 0
91 13 182 0 175 0
91 13 183 0 175 0
91 13 184 0 175 0
91 13 185 0 175 0
91 13 186 0 175 0
91 14 180 0 175 0
91 14 181 0 175 0
91 14 182 0 175 0
91 14 183 0 175 0
91 14 184 0 175 0
91 14 185 0 175 0
91 14 186 0 175 0
91 15 182 0 175 0
91 15 183 0 175 0
91 15 184 0 175 0
91 15 185 0 175 0
91 15 186 0 175 0
91 16 180 0 175 0
91 16 181 0 175 0
91 16 182 0 175 0
91 16 183 0 175 0
91 16 184 0 175 0
91 16 185 0 175 0
91 16 188 0 175 0
91 17 179 0 175 0
91 17 180 0 175 0
91 17 181 0 175 0
91 17 188 0 175 0
91 18 180 0 175 0
91 18 188 0 175 0
91 19 179 0 175 0
91 19 180 0 175 0
91 19 187 0 175 0
91 19 188 0 175 0
91 20 180 0 175 0
91 20 188 0 175 0
92 0 168 0 175 0
92 0 169 0 175 0
92 0 170 0 175 0
92 0 171 0 175 0
92 0 173 0 175 0
92 0 174 0 175 0
92 0 175 0 175 0
92 0 176 0 175 0
92 0 177 0 175 0
92 0 178 0 175 0
92 0 179 0 175 0
92 0 180 0 175 0
92 0 181 0 175 0
92 0 182 0 175 0
92 0 183 0 175 0
92 0 184 0 175 0
92 0 185 0 175 0
92 0 186 0 175 0
92 0 187 0 175 0
92 0 188 150 240 80
92 0 189 150 240 80
92 0 190 150 240 80
92 0 191 150 240 80
92 0 192 150 240 80
92 0 193 150 240 80
92 0 194 150 240 80
92 0 195 150 240 80
92 0 196 150 240 80
92 0 197 150 240 80
92 0 198 150 240 80
92 0 199 150 240 80
92 0 200 255 0 255
92 0 201 255 0 255
92 0 202 255 0 255
92 0 203 255 0 255
92 0 204 255 0 255
92 0 205 255 0 255
92 0 206 255 0 255
92 0 207 255 0 255
92 0 208 255 0 255
92 0 209 255 0 255
92 0 210 255 0 255
92 0 211 255 0 255
92 0 212 255 0 255
92 0 213 255 0 255
92 0 214 255 0 255
92 0 215 255 0 255
92 0 216 255 0 255
92 0 217 255 0 255
92 0 218 255 0 255
92 0 219 255 0 255
92 0 220 255 0 255
92 0 221 255 0 255
92 0 222 255 0 255
92 0 223 255 0 255
92 0 224 255 0 255
92 0 225 255 0 255
92 0 226 255 0 255
92 0 227 255 0 255
92 0 228 255 0 255
92 0 229 255 0 255
92 0 230 255 0 255
92 0 231 255 0 255
92 0 232 255 0 255
92 0 233 255 0 255
92 0 234 255 0 255
92 0 235 255 0 255
92 0 236 255 0 255
92 0 237 255 0 255
92 0 238 255 0 255
92 0 239 255 0 255
92 0 240 255 0 255
92 0 241 255 0 255
92 0 242 255 0 255
92 0 243 255 0 255
92 0 244 255 0 255
92 0 245 255 0 255
92 0 246 255 0 255
92 0 247 255 0 255
